ply
format ascii 1.0
comment VCGLIB generated
element vertex 812
property float x
property float y
property float z
property float nx
property float ny
property float nz
element face 0
property list uchar int vertex_indices
end_header
-0.385297 -0.80384 -0.00552657 -0.188187 -0.97382 -0.127516 
-0.687705 -0.345334 0.229482 -0.380036 0.890443 -0.250367 
-0.411719 -0.541228 -0.134497 -0.231394 0.661622 -0.713241 
0.0378839 -0.965126 -0.902687 -0.162625 -0.836505 -0.523271 
-0.816333 -0.534325 -0.675133 -0.780797 0.280332 0.558364 
0.355994 -0.944218 -0.044319 -0.120982 -0.912499 0.390779 
0.117743 -0.687268 -0.959885 -0.269126 -0.509295 -0.817429 
0.192024 -0.996346 -0.832946 0.164766 -0.983964 -0.0683217 
0.158063 -0.83979 0.751342 -0.13799 -0.975487 0.171419 
-0.229831 -0.520395 -0.83203 -0.170571 0.844187 -0.508187 
-0.757475 -0.62383 -0.811398 0.317354 -0.454263 -0.832425 
-0.891061 -0.548498 -0.927704 0.0865393 0.30704 -0.947754 
-0.613176 -0.789699 -0.72083 0.108969 0.88061 -0.461143 
-0.732867 -0.795993 0.251226 -0.716638 -0.543088 -0.437591 
0.240638 -0.624213 -0.994038 -0.0300603 0.152998 -0.987769 
-0.673318 -0.945183 -0.635219 -0.220906 -0.875885 0.428983 
-0.705882 -0.537492 -0.484904 -0.758573 -0.621282 -0.196407 
-0.0659151 -0.524215 0.224116 0.4941 0.625887 -0.603432 
0.325882 -0.985709 -0.460607 -0.0288136 -0.997778 0.0600775 
-0.0535342 -0.97237 -0.837698 -0.200209 -0.842172 -0.500663 
-0.470909 -0.695322 -0.150479 -0.502368 -0.607083 -0.615692 
0.0615417 -0.384387 0.714198 -0.371673 0.601565 -0.707092 
-0.688167 -0.514655 -0.787686 0.236022 0.0652703 -0.969553 
-0.39491 -0.533024 0.664412 0.670576 0.225913 -0.706605 
-0.441037 -0.490145 0.0441315 -0.358605 0.921607 -0.148469 
0.32953 -0.782709 -0.246739 -0.310005 0.929637 -0.199177 
-0.245917 -0.510557 -0.781987 -0.056003 0.85739 -0.511612 
-0.527759 -0.80479 -0.737113 0.197935 0.476087 -0.856833 
-0.618204 -0.330663 0.328338 0.0354644 0.992519 -0.116822 
0.0378209 -0.580923 -0.936796 -0.117995 0.624699 -0.771899 
-0.200661 -0.362669 0.765951 0.145807 0.303512 -0.941606 
-0.671699 -0.322625 0.375381 -0.0907783 0.994195 -0.057755 
-0.79953 -0.824672 -0.619861 -0.729313 0.194885 0.655837 
0.112826 -0.319426 0.829975 0.178345 0.977305 0.114312 
-0.661345 -0.393258 0.662472 -0.716726 0.608573 0.340503 
-0.357216 -0.629847 -0.206427 -0.142798 0.274226 -0.951004 
0.307063 -0.959896 -0.295814 -0.031239 -0.972702 0.229944 
-0.618944 -0.464713 0.816992 -0.773435 0.42096 0.473911 
0.193241 -0.379424 0.305949 -0.0225468 0.853335 -0.520875 
-0.0305989 -0.647951 -0.0100673 0.98962 0.0765769 -0.121608 
-0.269508 -0.649572 0.737311 0.346669 -0.449336 -0.823358 
0.359963 -0.425224 -0.0927146 -0.0728559 0.994411 -0.0764085 
-0.77893 -0.588876 0.539333 -0.739303 0.562936 0.369506 
-0.777017 -0.361118 -0.0338434 -0.309052 0.900707 0.305309 
-0.776874 -0.578681 -0.847486 0.427799 -0.336535 -0.838887 
-0.726294 -0.945713 -0.664259 -0.346107 -0.792524 0.502111 
-0.0894278 -0.905393 -0.89821 -0.351863 -0.256035 -0.900355 
-0.0976191 -0.474573 0.0601971 0.600188 0.673202 0.43194 
-0.0338498 -0.788655 0.785273 -0.280307 -0.75377 -0.594356 
0.461438 -0.902824 -0.331845 0.969433 -0.243315 0.0315701 
0.0223878 -0.814638 0.779303 -0.391254 -0.878757 -0.273324 
0.157601 -0.862656 0.575709 -0.0177589 -0.975604 0.21882 
-0.639795 -0.610949 -0.778761 0.314819 -0.338422 -0.886769 
0.383657 -0.59749 0.141506 0.255802 -0.965665 0.0453562 
-0.487883 -0.310454 0.694404 0.0722123 0.983216 -0.167545 
-0.663639 -0.838956 -0.492351 0.705477 0.706798 0.0523376 
0.357273 -0.879254 0.565491 0.0171228 -0.987116 0.15909 
-0.626904 -0.324586 0.5906 -0.472551 0.85262 0.223013 
-0.671999 -0.474933 -0.651997 0.402217 0.823731 -0.399612 
0.445859 -0.590795 -0.7898 0.977803 0.122075 -0.170294 
-0.675854 -0.552685 -0.799704 0.321637 0.00893411 -0.946821 
-0.708401 -0.353091 0.519833 -0.259337 0.864296 0.430971 
0.120116 -0.830149 0.801511 -0.0697358 -0.995567 0.0631105 
-0.942619 -0.853117 -0.88782 0.331967 0.0129249 -0.943203 
-0.411049 -0.705815 -0.18612 -0.265322 -0.61954 -0.738766 
-0.869531 -0.732837 0.531267 -0.663265 -0.394067 0.636232 
-0.569104 -0.630621 -0.0699229 -0.934673 -0.022205 -0.354815 
-0.747646 -0.417311 0.244345 -0.829716 0.209773 -0.517269 
-0.753425 -0.472945 -0.719093 0.222389 0.932606 -0.284234 
0.440737 -0.78436 -0.141489 0.44428 0.886746 -0.127659 
0.258212 -0.525577 -0.858472 0.00143082 0.997243 -0.0741874 
-0.877478 -0.622329 -0.748304 -0.649677 -0.236757 0.722403 
-0.351177 -0.510569 0.688077 0.471194 0.0686184 -0.879356 
0.0632033 -0.867526 0.455477 -0.243603 -0.959819 0.139305 
-0.675487 -0.318253 0.360737 -0.151102 0.988473 -0.00950337 
-0.439964 -0.481326 0.0961864 -0.199158 0.970484 0.136001 
-0.199634 -0.370115 0.755039 0.101359 0.308082 -0.945945 
0.199647 -0.87149 0.515667 -0.0961619 -0.984712 0.145241 
0.418788 -0.674317 0.404709 0.772283 -0.344144 -0.533988 
-0.37818 -0.803894 -0.040772 -0.19292 -0.979662 -0.0551658 
-0.822505 -0.945048 -0.701401 0.10992 -0.993499 -0.0296114 
-0.334439 -0.600572 -0.197557 -0.116412 0.463654 -0.878335 
0.401845 -0.612723 -0.113864 0.148097 -0.977148 0.152474 
0.309387 -0.404555 0.228797 -0.405779 0.859761 -0.310087 
0.0914682 -0.318463 0.80062 0.0383835 0.98368 -0.175783 
-0.913561 -0.783679 -0.177471 -0.430042 0.874155 -0.22565 
-0.139054 -0.817919 -0.801402 -0.117099 0.935796 -0.332526 
-0.190965 -0.854001 -0.859327 -0.327162 0.446599 -0.832775 
0.387847 -0.782374 -0.278182 -0.0414374 0.994401 -0.0972057 
0.243075 -0.89988 0.0418594 -0.808621 -0.575388 0.122721 
-0.329679 -0.663893 -0.21953 -0.072243 0.0226951 -0.997129 
0.484435 -0.607596 0.54351 0.996607 0.0158487 0.0807625 
0.116171 -0.537302 -0.893716 -0.0651092 0.946625 -0.315692 
-0.119106 -0.510917 -0.733414 0.251502 0.927522 0.276494 
-0.257959 -0.506252 -0.681307 0.210388 0.910451 0.356111 
0.0449439 -0.621522 0.477185 -0.868531 0.490702 -0.0697516 
-0.724489 -0.888402 0.0293529 0.095683 -0.994851 0.0334065 
0.258055 -0.833922 0.805664 0.0158603 -0.949899 0.312153 
-0.446442 -0.468805 0.318969 0.903328 0.23851 0.356528 
0.301236 -0.395508 0.252787 -0.143862 0.929261 -0.340262 
0.310566 -0.426247 0.0868604 -0.587493 0.808197 -0.0408589 
0.232619 -0.889423 0.0991313 -0.783323 -0.608521 0.126916 
0.285127 -0.476731 0.0859522 -0.990713 0.0878927 -0.103747 
-0.149483 -0.309028 0.820386 0.0269757 0.928057 -0.371461 
0.47756 -0.608597 0.481916 0.975685 0.12974 -0.176655 
0.0706213 -0.587763 -0.953798 -0.156098 0.615755 -0.772321 
-0.083299 -0.66421 0.1473 -0.572791 0.495185 0.653224 
-0.763941 -0.48851 -0.426714 -0.845558 -0.239926 -0.476935 
-0.8823 -0.905659 -0.228614 -0.655057 -0.717238 -0.237633 
-0.839073 -0.41818 0.365853 -0.801116 0.0785571 -0.593331 
-0.774177 -0.396531 0.299698 -0.740423 0.443178 -0.505339 
0.454753 -0.770736 0.53464 0.839635 0.541349 0.0442082 
0.35881 -0.449082 -0.350116 -0.0500004 0.997038 -0.0584359 
-0.747872 -0.472739 -0.618347 -0.561639 0.631308 0.534801 
-0.176724 -0.472406 0.110608 0.255395 0.771169 0.583156 
-0.885877 -0.416426 -0.248447 -0.756238 0.198385 -0.623496 
-0.792792 -0.766111 0.00419301 -0.409089 0.864362 0.292447 
0.429427 -0.635481 -0.773876 0.802034 -0.596177 0.0362551 
0.394428 -0.736465 0.719498 0.884415 -0.242257 0.398899 
-0.671678 -0.502382 0.111765 -0.751264 -0.116572 -0.649626 
0.405248 -0.597677 -0.00818342 0.323524 -0.939081 0.116016 
-0.676975 -0.82831 -0.466934 0.555229 0.802945 0.216797 
-0.810755 -0.804774 0.432334 -0.495108 -0.863661 -0.0946438 
0.073029 -0.315094 0.811288 0.0203489 0.994054 -0.106971 
-0.0769211 -0.532555 0.0630178 0.826898 0.48721 0.280833 
-0.678605 -0.513566 0.136042 -0.879741 -0.0368454 -0.474023 
-0.792508 -0.396062 -0.164236 0.513071 0.766977 -0.385363 
-0.582212 -0.500021 -0.534991 0.964536 0.175129 0.197487 
0.486722 -0.823577 0.0449661 0.988799 0.135409 -0.062774 
0.460858 -0.898588 -0.460561 0.983657 -0.0384037 -0.175907 
-0.682213 -0.386551 0.589935 -0.722312 0.583329 0.371473 
0.405264 -0.795282 -0.353065 0.328133 0.930258 -0.164161 
0.351325 -0.609928 0.329445 0.83855 -0.047891 -0.542715 
-0.773404 -0.642406 -0.814212 0.467191 -0.509898 -0.722313 
-0.147219 -0.608284 -0.89954 -0.297008 -0.0658865 -0.952599 
0.438205 -0.903319 0.252091 0.449851 -0.884366 0.124622 
-0.787514 -0.508778 0.318361 -0.82727 -0.336228 -0.450083 
0.330056 -0.517264 -0.773329 -0.0740796 0.978459 -0.192692 
0.258152 -0.497597 -0.541515 -0.608606 0.761863 -0.221729 
-0.497007 -0.470076 0.456514 0.995722 0.0914045 -0.0135205 
0.4715 -0.890997 -0.0369997 0.937336 -0.348425 0.000873921 
0.330517 -0.422667 -0.00720907 -0.429273 0.903113 -0.0105813 
-0.219932 -0.793925 -0.115971 0.201505 -0.842007 -0.500419 
-0.2208 -0.464668 0.102833 0.11218 0.874296 0.472252 
-0.451949 -0.702247 -0.163571 -0.556468 -0.654565 -0.51175 
-0.754347 -0.386147 0.274871 -0.8031 0.299612 -0.515036 
0.245415 -0.817529 0.168219 -0.993521 0.110153 0.0279754 
-0.339916 -0.809201 0.0657045 -0.351776 -0.919111 0.177453 
-0.773203 -0.369593 0.00277685 -0.620394 0.645205 0.445894 
0.012305 -0.855915 -0.910098 -0.163603 0.721047 -0.673295 
0.390578 -0.736081 0.0952851 0.186197 0.936352 -0.297617 
0.0905947 -0.603506 0.350406 -0.60551 -0.421774 -0.674881 
0.493241 -0.822871 0.228935 0.999126 -0.00629626 0.0413335 
-0.654117 -0.350086 0.174549 -0.278865 0.957823 0.0693503 
0.277384 -0.899973 0.325399 -0.126656 -0.986332 0.10539 
-0.119083 -0.63132 -0.907495 -0.274556 -0.447894 -0.850888 
0.0715917 -0.602238 -0.964028 -0.210693 0.333046 -0.919069 
0.383763 -0.896259 0.408757 0.0622501 -0.994371 0.0857382 
-0.0214282 -0.88724 -0.927616 -0.216571 0.233516 -0.947928 
0.434171 -0.708805 0.597956 0.907094 -0.401139 0.127542 
0.299784 -0.586974 -0.114852 -0.919094 -0.390176 0.0550312 
0.141073 -0.712584 -0.954196 -0.152607 -0.56184 -0.813048 
0.00263402 -0.938505 -0.914248 -0.248587 -0.584325 -0.772508 
-0.811572 -0.850691 -0.606967 -0.718098 0.101498 0.688501 
0.483612 -0.846804 0.41027 0.858564 -0.50602 0.082537 
-0.632736 -0.875891 0.19152 -0.0602646 -0.97127 0.230224 
-0.87873 -0.482242 -0.781688 -0.604029 0.60948 0.513501 
-0.761404 -0.551781 0.307738 -0.803251 -0.325064 -0.499121 
0.449261 -0.833263 -0.429579 0.859308 0.508568 0.0542939 
-0.0151106 -0.583255 0.696016 -0.511858 0.0243959 -0.858724 
0.331825 -0.947493 -0.122158 -0.0586489 -0.997082 0.0488726 
-0.117791 -0.517217 0.234135 -0.158868 0.78219 -0.602445 
-0.347213 -0.689514 0.714497 0.454024 -0.422788 -0.784291 
0.378579 -0.7934 -0.407132 0.0651232 0.989425 -0.129605 
0.432455 -0.718999 0.563652 0.969501 -0.244461 0.0175384 
-0.928221 -0.553255 -0.882361 -0.923475 0.325788 0.202623 
-0.59241 -0.504822 -0.520655 0.93216 0.00983403 0.361914 
-0.0712075 -0.835368 -0.864108 -0.227764 0.832229 -0.505488 
-0.565791 -0.530224 -0.783672 0.121424 0.128966 -0.984187 
-0.881832 -0.937485 -0.696746 -0.348801 -0.830612 0.434076 
-0.752188 -0.942423 -0.736801 -0.161595 -0.918163 -0.361751 
-0.371082 -0.916653 -0.76752 -0.235579 -0.767598 -0.596066 
0.296335 -0.916381 0.176401 -0.28493 -0.956453 0.0633458 
0.414957 -0.971262 -0.564779 0.582578 -0.812339 0.0266308 
0.0607582 -0.836027 -0.872927 -0.00882535 0.909212 -0.41624 
0.298278 -0.442346 -0.0963819 -0.666301 0.744412 0.0435246 
0.235083 -0.905761 -0.300018 -0.993513 0.0900339 -0.0694649 
-0.272926 -0.513622 -0.792371 -0.108507 0.912976 -0.39332 
0.386175 -0.799891 -0.381766 0.184267 0.98193 -0.0431085 
-0.919387 -0.925615 -0.842483 0.424507 -0.657522 -0.622462 
-0.561944 -0.855556 0.385198 0.0643052 -0.957598 0.280841 
0.33655 -0.9775 -0.354455 -0.0227828 -0.999215 0.032398 
-0.69819 -0.927837 -0.618024 0.0373818 -0.991704 0.122987 
0.389171 -0.598795 0.170019 0.257702 -0.964455 0.058456 
-0.732307 -0.479053 -0.470503 -0.871166 0.00507583 -0.490963 
0.032399 -0.974391 -0.727966 0.0816856 -0.909505 0.407588 
0.324915 -0.96707 -0.297654 -0.00846069 -0.986086 0.166019 
0.281433 -0.503947 -0.698454 -0.361321 0.93154 -0.0409876 
-0.321672 -0.819125 0.0076588 -0.172335 -0.984946 -0.0134985 
0.471497 -0.892524 0.119485 0.685888 -0.727599 0.0125673 
-0.719688 -0.572321 -0.554813 -0.705438 -0.261056 0.658944 
-0.643822 -0.487069 -0.767582 0.0541618 0.630692 -0.774141 
-0.725188 -0.502026 -0.486166 -0.893391 -0.201823 -0.401396 
-0.0446164 -0.310243 0.807164 0.0646666 0.843738 -0.532846 
-0.115977 -0.569769 0.151744 0.252641 0.850208 -0.461864 
-0.647869 -0.3202 0.324863 0.0832142 0.978942 -0.186408 
0.302532 -0.495141 -0.593881 -0.226408 0.959122 -0.169777 
-0.665992 -0.502938 0.10206 -0.728417 -0.125748 -0.673496 
0.355813 -0.364058 0.665332 0.305535 0.951889 -0.0235853 
-0.644975 -0.862292 0.327657 -0.0929734 -0.994345 0.0513272 
0.0699749 -0.85335 -0.902684 0.0264947 0.887708 -0.459645 
0.426559 -0.446113 -0.230268 0.303935 0.952129 -0.0327788 
0.335223 -0.708595 0.195271 0.0821007 0.957029 -0.278129 
-0.899852 -0.46455 -0.131157 -0.82829 -0.328331 0.454021 
0.447667 -0.490607 0.5632 0.890524 0.449273 0.0715634 
-0.68595 -0.660295 0.14722 -0.778102 0.187551 -0.599485 
-0.630784 -0.729612 0.740385 -0.671918 -0.493996 0.551809 
-0.0335189 -0.568438 0.217576 0.606753 0.37622 -0.700221 
0.0672235 -0.424078 0.677198 -0.572608 0.57182 -0.587488 
-0.675328 -0.935404 -0.615649 -0.141812 -0.922406 0.359244 
-0.469162 -0.44942 0.563199 0.818672 0.317189 -0.478714 
-0.0943963 -0.770583 0.0179294 0.637748 -0.751552 0.168666 
-0.567407 -0.352195 0.132933 0.231858 0.910197 -0.343195 
0.411676 -0.641435 -0.405115 0.278968 -0.953606 0.113191 
0.419035 -0.384968 0.620496 0.662224 0.728592 0.174967 
-0.610091 -0.577191 0.0215795 -0.738753 0.378514 -0.557648 
-0.79492 -0.417484 -0.188537 0.932196 0.196998 -0.303648 
-0.777043 -0.525757 -0.33096 -0.167502 -0.982058 0.0866265 
-0.48389 -0.802972 0.694829 0.531408 -0.685731 -0.497373 
-0.665146 -0.326218 0.460049 -0.151936 0.977848 0.143975 
-0.52314 -0.732957 -0.0793473 -0.682519 -0.564305 -0.464465 
-0.225444 -0.818706 -0.0912197 0.150554 -0.792322 -0.591235 
-0.673208 -0.52954 0.756368 -0.889476 -0.0277078 0.456142 
-0.785054 -0.596651 0.510986 -0.686814 0.661668 0.300803 
0.42991 -0.720473 0.363139 0.680296 0.729353 0.0723915 
-0.785836 -0.59794 -0.846666 0.470973 -0.349793 -0.809833 
0.00440212 -0.595409 0.684074 -0.717363 0.0431878 -0.69536 
-0.359712 -0.800646 0.0617847 -0.310405 -0.913981 0.261318 
0.423106 -0.956575 -0.724358 0.944299 -0.324822 -0.052819 
0.0944591 -0.370087 0.374701 -0.461537 0.870807 -0.169349 
-0.549882 -0.655411 -0.0923864 -0.781407 -0.0390946 -0.622796 
-0.651275 -0.415588 0.723171 -0.828205 0.417598 0.373748 
-0.769974 -0.610681 0.313613 -0.792462 0.26153 -0.551005 
-0.845617 -0.66875 0.391632 -0.797713 0.383941 -0.465021 
0.439546 -0.502547 0.647366 0.820134 0.551931 0.150838 
0.327981 -0.747818 -0.00865874 -0.193168 0.946383 -0.258931 
0.453219 -0.547921 0.194308 0.695903 -0.713944 0.0774797 
0.238683 -0.919075 -0.0427593 -0.780669 -0.62223 0.0581797 
0.445713 -0.617726 -0.761544 0.929415 -0.292592 -0.224895 
0.432252 -0.718772 0.326131 0.65783 0.752712 0.0261531 
-0.471128 -0.718503 -0.124161 -0.427383 -0.603943 -0.672753 
-0.92575 -0.57595 -0.851118 -0.980417 0.19628 -0.0160478 
0.203146 -0.846276 0.751827 -0.0642201 -0.981395 0.18094 
0.491813 -0.821243 0.409166 0.977002 -0.208244 0.0458476 
-0.171633 -0.392606 0.751728 0.0127446 0.273431 -0.961807 
0.45994 -0.428133 -0.0402364 0.378005 0.902626 -0.205859 
0.304748 -0.432919 -0.0124825 -0.606271 0.79335 0.0550548 
-0.710648 -0.371871 0.0854512 -0.684982 0.597275 0.417208 
0.275558 -0.490417 0.170262 -0.938193 0.0451938 -0.34315 
0.458397 -0.552213 0.222735 0.642763 -0.750433 0.153969 
-0.164824 -0.307595 0.799166 0.107766 0.793361 -0.599137 
-0.541718 -0.663576 -0.106655 -0.664726 -0.100126 -0.740347 
0.286057 -0.545525 -0.06254 -0.841692 -0.534215 -0.0785441 
0.142893 -0.546244 -0.91207 0.0441607 0.895348 -0.443172 
0.400827 -0.661912 -0.83338 0.681961 -0.713499 -0.160775 
-0.855566 -0.477752 -0.85755 0.0817849 0.980472 -0.178846 
-0.0157948 -0.71532 0.71827 -0.613083 -0.397132 -0.682946 
0.0705185 -0.819331 0.333212 -0.553689 -0.328758 -0.76508 
0.306001 -0.940234 0.0206328 -0.000123802 -0.995508 0.0946742 
0.389987 -0.909401 0.326932 0.325309 -0.939337 0.108718 
0.446684 -0.424929 -0.0151501 0.175085 0.983797 -0.038582 
-0.483852 -0.316829 0.797029 -0.339703 0.876392 0.341378 
-0.670619 -0.685129 0.124764 -0.805334 -0.0240074 -0.592335 
0.198019 -0.675708 -0.978046 -0.136178 -0.619747 -0.772896 
-0.330581 -0.493886 -0.0947297 -0.156233 0.921183 -0.356389 
-0.670503 -0.574018 -0.79102 0.319149 -0.181254 -0.93021 
-0.41017 -0.492513 -0.74846 0.0150956 0.94554 -0.325156 
-0.462978 -0.941975 -0.677868 -0.0563517 -0.933151 -0.355039 
-0.544347 -0.641493 -0.096455 -0.742715 -0.0778954 -0.665062 
0.0478347 -0.553003 0.644682 -0.695477 0.1097 -0.710125 
0.243554 -0.842566 0.184263 -0.993837 0.110034 0.0134295 
0.105358 -0.411394 0.6372 -0.699329 0.615494 -0.363464 
0.0249301 -0.714052 0.68433 -0.557951 -0.381068 -0.73721 
-0.723996 -0.692104 0.212964 -0.79756 -0.175806 -0.577053 
-0.00383842 -0.71598 0.711341 -0.627311 -0.317229 -0.711229 
-0.00918853 -0.979368 -0.809002 -0.139332 -0.98361 -0.114443 
-0.62575 -0.633651 0.0602224 -0.868615 -0.0900806 -0.48723 
-0.741085 -0.559019 0.561153 -0.8019 0.0195202 0.597139 
0.333904 -0.955142 -0.170978 -0.039507 -0.998077 0.0477655 
0.421451 -0.969866 -0.543186 0.575051 -0.816492 0.0515492 
-0.467816 -0.468853 0.573517 0.869269 0.18142 -0.459846 
-0.611857 -0.637416 0.016713 -0.890349 -0.0801207 -0.448174 
-0.325127 -0.579599 -0.82881 -0.280256 0.0888216 -0.955807 
-0.732548 -0.351759 0.28938 -0.494077 0.832847 -0.249505 
-0.0935594 -0.665008 0.736518 -0.277735 -0.245448 -0.928773 
-0.141757 -0.946644 -0.6736 -0.0155976 -0.696366 0.717517 
0.280957 -0.861599 0.641345 0.00971325 -0.989141 0.146652 
0.442962 -0.939374 -0.258611 0.41139 -0.905326 -0.105559 
0.0699993 -0.32264 0.772229 -0.0896434 0.953658 -0.287229 
-0.0990415 -0.766238 0.0417326 0.663777 -0.719262 0.205093 
-0.77896 -0.62541 -0.822062 0.467191 -0.509898 -0.722313 
0.393087 -0.885101 -0.804163 0.809883 0.543697 -0.220191 
0.356431 -0.515048 -0.78092 0.0311545 0.981691 -0.187915 
0.16908 -0.690014 -0.959389 -0.101629 -0.511014 -0.853544 
-0.459457 -0.580434 -0.14929 -0.462884 0.622057 -0.631493 
-0.329744 -0.933547 -0.655638 -0.0279147 -0.993052 0.11432 
-0.70694 -0.602422 0.637847 -0.940294 0.0004419 0.340364 
-0.721391 -0.334282 0.464556 -0.0569791 0.979333 0.194065 
-0.692258 -0.945525 -0.726668 0.185368 -0.846988 -0.498248 
-0.329172 -0.799826 -0.719382 -0.0474638 0.969959 -0.238592 
0.128204 -0.878978 0.352877 -0.389026 -0.799023 -0.458499 
-0.378314 -0.537582 -0.132938 -0.140687 0.72236 -0.677055 
-0.518911 -0.427419 0.102241 0.704123 0.0776322 -0.705822 
0.0430624 -0.979409 -0.800791 0.0867894 -0.994843 0.0524949 
-0.0158189 -0.869831 -0.917083 -0.180402 0.53325 -0.826499 
-0.619631 -0.856526 0.358589 -0.10913 -0.982274 0.152406 
-0.632774 -0.476201 0.806009 -0.786091 0.343934 0.513587 
-0.222582 -0.441821 0.0697948 0.019891 0.966007 0.257748 
-0.241071 -0.752854 -0.190676 0.0130987 -0.690532 -0.723183 
-0.908812 -0.712295 0.491304 -0.999682 0.0239381 0.00790618 
0.380858 -0.367665 0.643202 0.497709 0.851489 0.165081 
0.424242 -0.624675 -0.385999 0.472994 -0.863662 0.174254 
0.410615 -0.753639 0.0166838 0.279885 0.95909 0.0425477 
-0.35102 -0.524707 -0.124501 -0.181082 0.717332 -0.672788 
-0.305358 -0.814687 0.0399281 -0.155088 -0.987324 0.0337376 
0.228336 -0.899753 -0.175945 -0.972642 -0.207376 -0.1047 
-0.68876 -0.738263 0.162162 -0.821481 -0.0336035 -0.569245 
-0.767579 -0.526108 -0.605656 -0.812106 0.188465 0.552236 
0.461689 -0.575048 -0.0957821 0.707111 -0.707089 -0.00437867 
-0.830473 -0.848132 -0.633892 -0.715129 0.182233 0.674819 
-0.667426 -0.856446 0.274206 -0.404499 -0.905962 -0.124955 
0.0604617 -0.330605 0.767013 -0.205239 0.831451 -0.516301 
-0.539581 -0.326903 0.746494 -0.518156 0.762674 0.387095 
-0.74663 -0.3451 0.325356 -0.479057 0.827528 -0.292749 
0.304103 -0.66272 -0.616149 0.0681485 -0.996615 0.0459768 
0.0448802 -0.825253 0.836034 -0.0908022 -0.987527 0.12863 
-0.749992 -0.929194 -0.325926 0.088338 -0.995608 0.0310157 
-0.771991 -0.582918 -0.617728 -0.721268 -0.440495 0.534544 
0.338468 -0.348953 0.588143 0.188334 0.977869 -0.0911186 
0.00784167 -0.931707 -0.928412 -0.278555 -0.423111 -0.862197 
-0.132375 -0.548028 0.725299 0.0833795 0.0374241 -0.995815 
-0.326636 -0.824246 -0.772551 -0.238637 0.708368 -0.664279 
-0.41568 -0.581232 0.279695 0.978146 0.00216809 0.207908 
-0.0517112 -0.611023 0.716493 -0.392331 -0.143384 -0.90858 
-0.702981 -0.49254 0.645744 -0.94573 0.106805 0.306899 
0.287594 -0.510445 -0.664251 -0.408095 0.908573 -0.089178 
-0.0514121 -0.63227 0.177059 -0.837246 0.0915065 0.539116 
0.264047 -0.500283 -0.217276 -0.983082 0.181788 0.0224185 
-0.38361 -0.388397 0.690174 0.436032 0.230855 -0.869817 
0.225378 -0.87391 -0.0145792 -0.992669 -0.119894 0.0152858 
-0.177706 -0.908099 -0.871807 -0.415866 -0.395647 -0.818852 
-0.0868436 -0.489224 -0.0393787 0.580208 0.77333 -0.255577 
-0.0912483 -0.945882 -0.881051 -0.225916 -0.747283 -0.624924 
0.198981 -0.337241 0.673066 -0.268822 0.950526 -0.155674 
0.482576 -0.5722 -0.251147 0.783395 -0.621176 0.0208082 
0.490301 -0.522815 -0.0905761 0.965176 -0.259416 0.0337358 
-0.535311 -0.52015 0.0818 -0.231238 0.817984 -0.526718 
-0.222549 -0.662314 0.742676 0.215304 -0.230538 -0.948945 
-0.942247 -0.860516 -0.121861 -0.929697 -0.337424 0.147676 
-0.0122412 -0.95075 -0.699905 -0.0155526 -0.892473 0.450833 
0.3846 -0.666173 -0.647559 0.16536 -0.983576 0.0723439 
0.381784 -0.944657 -0.0958072 0.103857 -0.992407 0.065893 
-0.313715 -0.3263 0.760856 0.259377 0.638746 -0.724381 
0.233129 -0.868976 -0.0356585 -0.991454 0.13043 0.00252196 
-0.990391 -0.881055 -0.891347 -0.319699 -0.156932 -0.934433 
-0.128418 -0.50881 0.11007 0.456453 0.641638 0.616401 
-0.888652 -0.750924 0.485772 -0.669604 -0.708012 0.224386 
0.170062 -0.321047 0.774816 0.130127 0.991233 -0.022912 
-0.417392 -0.779308 -0.0707588 -0.535857 -0.7767 -0.331051 
-0.140918 -0.35371 0.774539 0.11212 0.452446 -0.884716 
0.253014 -0.994622 -0.823909 -0.134377 -0.986034 0.0983825 
-0.763562 -0.929789 -0.413928 -0.816004 -0.521235 -0.249903 
-0.671785 -0.657041 0.742679 -0.836293 -0.25494 0.485408 
-0.201596 -0.480709 -0.0843963 -0.0176411 0.863981 -0.503215 
-0.583618 -0.3844 0.0496816 0.683321 0.388871 -0.617941 
0.384122 -0.423238 -0.0689715 0.0810408 0.987062 -0.138353 
-0.824328 -0.900625 -0.340801 -0.77955 -0.393072 -0.487643 
0.309038 -0.602034 -0.00219357 -0.78001 -0.624635 0.0376176 
-0.186039 -0.45167 0.0824128 0.179136 0.887158 0.425278 
-0.174174 -0.642316 -0.866011 -0.358576 -0.756977 -0.546268 
-0.275619 -0.763511 -0.186777 0.0310884 -0.592557 -0.804928 
-0.97545 -0.93182 -0.83975 -0.787027 -0.41308 0.458208 
-0.94573 -0.575734 -0.819706 -0.976519 0.107028 -0.186965 
-0.903597 -0.895674 -0.142197 -0.212627 -0.976124 -0.0444052 
0.0851667 -0.530764 -0.761192 0.124579 0.941783 0.312291 
-0.864645 -0.745457 0.41309 -0.694013 -0.321211 -0.644336 
0.17234 -0.35278 0.521612 -0.42563 0.904767 0.0153887 
-0.677746 -0.831238 0.213523 -0.818304 -0.468196 -0.333423 
-0.180598 -0.727018 0.253892 -0.473401 -0.840028 -0.265038 
0.307333 -0.907715 0.334307 -0.130794 -0.985403 0.108967 
-0.69701 -0.850122 0.322652 -0.437714 -0.872975 -0.215223 
-0.822019 -0.645831 0.363147 -0.655108 0.508461 -0.558839 
-0.0956973 -0.676127 -0.865418 -0.240487 -0.764753 -0.597761 
-0.595881 -0.361275 0.0598943 0.504089 0.780053 -0.370692 
0.450709 -0.631971 0.408993 0.800155 -0.255515 -0.542645 
-0.41003 -0.58296 0.255963 0.978146 0.00216808 0.207908 
0.444112 -0.553397 0.691042 0.865087 0.149625 0.478786 
0.300934 -0.930981 0.0341273 -0.11526 -0.967562 0.224809 
0.431766 -0.526763 0.384073 0.719993 -0.606731 0.336881 
0.091017 -0.37854 0.465637 -0.398275 0.916794 0.0294171 
-0.485018 -0.480559 -0.681966 0.173728 0.984055 -0.0381452 
0.436442 -0.611383 -0.251071 0.471231 -0.866699 0.16363 
0.406898 -0.534146 -0.806633 0.277801 0.897458 -0.342632 
-0.523388 -0.57802 -0.0915973 -0.464309 0.281734 -0.839669 
-0.67988 -0.74341 0.643527 -0.815997 -0.477548 0.325725 
-0.273232 -0.317519 0.776663 0.259842 0.719041 -0.644564 
0.293814 -0.669258 0.238443 -0.00243953 0.823504 -0.567305 
-0.0754393 -0.751636 0.261468 0.544845 -0.814172 -0.200667 
-0.751657 -0.912551 -0.440893 -0.829847 -0.461192 -0.314096 
-0.305182 -0.771126 0.798324 0.318254 -0.663626 -0.67699 
-0.597989 -0.403298 0.0267363 0.578744 0.348256 -0.737409 
-0.660746 -0.63784 0.125357 -0.823592 0.132283 -0.551541 
-0.198247 -0.690043 0.775407 0.0228939 -0.377751 -0.925624 
-0.47437 -0.529137 0.547606 0.987373 0.0152349 -0.15768 
-0.610763 -0.451065 0.82891 -0.749563 0.442539 0.492255 
-0.569041 -0.934556 -0.719288 -0.0174158 -0.899322 -0.43694 
-0.145199 -0.46238 -0.0404111 0.338974 0.865862 -0.36794 
0.326529 -0.688122 0.228489 0.369632 0.842421 -0.392044 
0.308052 -0.595117 0.00304495 -0.804619 -0.591785 0.0487663 
0.354089 -0.925279 0.14464 -0.058447 -0.997807 0.0310531 
0.301727 -0.941055 -0.0643667 -0.203971 -0.974793 0.0904116 
-0.748427 -0.413968 0.0663975 -0.750201 0.209561 0.627122 
0.312418 -0.598739 0.0387192 -0.728213 -0.68389 0.0447221 
0.304444 -0.598559 -0.0365651 -0.74533 -0.663946 0.060491 
-0.731066 -0.419701 0.217508 -0.783447 0.171001 -0.597469 
0.415238 -0.696193 0.453066 0.982145 -0.104531 -0.156414 
0.43319 -0.90318 0.226815 0.446285 -0.893614 0.0477865 
-0.690249 -0.932611 -0.386024 0.772385 -0.522567 0.361035 
0.464311 -0.879662 0.36205 0.643115 -0.76337 0.0605761 
-0.990456 -0.881443 -0.845192 -0.948616 -0.0765878 0.30702 
0.493088 -0.852614 0.146957 0.968035 -0.243489 0.0601718 
-0.698008 -0.335836 0.298318 -0.239328 0.925803 -0.292593 
0.286981 -0.961681 -0.960321 -0.0341548 -0.444061 -0.895346 
-0.385464 -0.321769 0.729487 0.223881 0.773635 -0.592762 
-0.150655 -0.966921 -0.723014 -0.0832406 -0.973082 0.214901 
0.240618 -0.854289 -0.382055 -0.942247 0.33034 -0.0552022 
-0.536415 -0.556838 -0.0574354 -0.51889 0.748894 -0.412202 
0.190952 -0.926074 -0.963805 -0.061056 0.00321272 -0.998129 
0.475977 -0.577692 -0.380706 0.882766 -0.46686 0.0525904 
0.455366 -0.56007 -0.718183 0.947317 0.30024 -0.111562 
-0.749311 -0.45407 -0.647961 -0.571777 0.654773 0.494311 
0.0790847 -0.405652 0.336356 -0.623157 0.661536 -0.417188 
-0.77645 -0.557022 0.491421 -0.953438 -0.126559 0.27375 
-0.827227 -0.768807 -0.121631 0.0514855 0.966972 -0.249627 
0.268686 -0.780101 -0.0725397 -0.696363 0.714169 -0.0709977 
-0.758985 -0.607473 -0.637545 -0.56489 -0.469504 0.678576 
0.427283 -0.549989 0.422227 0.753926 0.258786 -0.603842 
-0.755781 -0.84576 -0.261489 0.892601 0.33024 0.306929 
0.300873 -0.960127 -0.220974 -0.177083 -0.969771 0.167883 
-0.411608 -0.310756 0.834815 -0.219045 0.958205 0.184017 
-0.306191 -0.484586 0.134691 -0.0746137 0.855236 0.512839 
0.414174 -0.935493 -0.804906 0.953066 0.120528 -0.277738 
-0.688967 -0.639371 0.721225 -0.90502 -0.167128 0.391161 
0.419137 -0.967962 -0.728364 0.864855 -0.498042 -0.0630946 
-0.491192 -0.52029 0.465189 0.914408 0.298209 0.273733 
-0.082543 -0.974669 -0.819573 -0.220628 -0.914917 -0.33801 
-0.831343 -0.802353 -0.273567 -0.269608 0.874471 -0.403253 
0.170251 -0.555758 0.257514 -0.412941 -0.289467 -0.863532 
-0.74693 -0.364562 0.272763 -0.664868 0.570273 -0.48243 
-0.682709 -0.603295 0.733109 -0.89313 -0.0590702 0.445902 
0.310667 -0.828513 -0.634178 0.191461 0.969386 -0.153734 
-0.142075 -0.711683 0.17614 -0.012564 -0.964329 -0.264408 
-0.168007 -0.446646 0.0585105 0.20769 0.96757 0.143781 
-0.060633 -0.518213 -0.0345251 0.843478 0.504084 -0.18559 
-0.27579 -0.505743 -0.686146 0.174252 0.928126 0.328964 
0.324824 -0.433626 -0.167011 -0.238907 0.971042 0.00111863 
-0.438081 -0.545888 -0.118977 -0.426649 0.688133 -0.586893 
0.245046 -0.847999 -0.438664 -0.976875 0.0950533 -0.19152 
-0.375632 -0.513591 -0.112289 -0.159074 0.783523 -0.600655 
-0.458348 -0.41644 0.61596 0.884825 0.19972 -0.420947 
-0.405144 -0.613639 -0.189208 -0.291722 0.374708 -0.880052 
0.477364 -0.789857 0.0231288 0.904494 0.426354 0.0106564 
-0.594839 -0.315896 0.432255 0.0486044 0.995604 -0.0800639 
-0.39739 -0.762467 -0.129343 -0.397902 -0.779966 -0.483039 
0.388966 -0.67722 -0.798782 0.478161 -0.874381 0.0825804 
0.426753 -0.940666 -0.0888233 0.238983 -0.970281 -0.037977 
-0.355113 -0.807922 -0.0144716 -0.166365 -0.984481 -0.0558574 
-0.142357 -0.51018 -0.725353 0.211746 0.928149 0.30611 
0.30467 -0.896048 0.412446 -0.0199249 -0.988386 0.150649 
0.322313 -0.436821 -0.201486 -0.263353 0.947105 -0.183404 
0.45583 -0.870049 0.378347 0.62601 -0.74109 0.242685 
0.220846 -0.37685 0.313753 0.0113103 0.868289 -0.49593 
-0.689203 -0.84508 -0.421761 0.779795 0.496645 0.381135 
-0.497149 -0.430513 0.419415 0.977414 0.199399 0.0700179 
0.359262 -0.517967 -0.809303 0.0970699 0.938636 -0.330969 
-0.690104 -0.737291 0.636242 -0.887085 -0.383323 0.257186 
0.162824 -0.364653 0.537949 -0.28887 0.942259 0.169419 
-0.571107 -0.333107 0.722749 -0.560623 0.749418 0.352243 
-0.668524 -0.338969 0.249936 -0.414346 0.899454 -0.138926 
-0.0284881 -0.71173 0.730069 -0.440537 -0.420921 -0.792939 
-0.0134458 -0.638263 0.271292 -0.97709 0.110028 0.182176 
-0.670258 -0.424157 -0.512421 -0.017322 0.926226 -0.376571 
-0.671844 -0.434067 -0.542068 -0.113954 0.974357 -0.194017 
0.139128 -0.528445 -0.823957 0.109889 0.98035 -0.163824 
-0.142132 -0.475845 0.740525 -0.0842681 0.211874 -0.973657 
-0.610262 -0.710255 0.0458012 -0.639603 -0.472419 -0.606407 
-0.475052 -0.617299 -0.155166 -0.455347 0.348436 -0.8193 
-0.807968 -0.486752 0.350682 -0.805315 -0.410938 -0.427314 
0.475942 -0.895608 -0.142043 0.96614 -0.249055 0.0674215 
0.332795 -0.442147 -0.222986 -0.147286 0.974599 -0.16871 
-0.321608 -0.357531 0.738096 0.110322 0.741541 -0.661775 
0.300365 -0.440407 -0.0631642 -0.601864 0.79831 -0.0214583 
-0.992261 -0.824728 -0.877079 -0.957299 0.285066 -0.0481307 
0.462768 -0.527069 0.594762 0.936081 0.350163 0.033742 
0.334775 -0.782258 -0.200846 -0.184263 0.978951 -0.0877615 
-0.141169 -0.667524 0.753418 -0.127444 -0.350867 -0.927713 
0.44808 -0.734382 0.274969 0.572524 0.81942 -0.027692 
-0.558402 -0.343237 0.749519 -0.58837 0.694823 0.413573 
-0.0659816 -0.974812 -0.751725 0.000712792 -0.986736 0.162331 
-0.852904 -0.795034 -0.24827 -0.245064 0.879795 -0.407313 
-0.927869 -0.60042 -0.782666 -0.797218 -0.373073 0.474616 
-0.601953 -0.434726 0.0102402 0.709326 0.236558 -0.664 
0.232848 -0.419386 0.258396 -0.230124 0.705477 -0.670332 
0.386099 -0.374986 0.486505 0.239028 0.969413 -0.0557155 
-0.6785 -0.631678 0.163998 -0.814592 0.217997 -0.537511 
-0.359443 -0.586864 -0.826281 -0.229498 -0.143712 -0.962641 
-0.8021 -0.503667 0.333142 -0.733272 -0.527432 -0.429101 
-0.517523 -0.316703 0.583553 0.612664 0.742226 -0.271558 
0.384237 -0.653266 -0.488488 0.202622 -0.973311 0.107752 
-0.973556 -0.880724 -0.822991 -0.972727 -0.0943935 0.211878 
0.281588 -0.473814 -0.437115 -0.500894 0.865487 -0.00614559 
-0.616715 -0.478807 -0.748489 0.14041 0.840284 -0.523648 
0.307938 -0.683157 -0.782044 0.00192145 -0.977685 0.210067 
0.492884 -0.531325 -0.145207 0.967341 -0.252756 -0.0191436 
0.441205 -0.496578 0.4559 0.879987 -0.438229 0.183245 
0.412701 -0.880261 -0.717306 0.838141 0.517771 -0.171559 
0.459779 -0.529911 0.616775 0.930793 0.362412 0.0477651 
-0.464695 -0.386659 0.612919 0.801956 0.305332 -0.513458 
-0.16453 -0.6242 0.738911 -0.162526 -0.240797 -0.956871 
0.00386238 -0.69234 0.692671 -0.650294 -0.241954 -0.720122 
-0.459711 -0.624561 -0.769184 -0.224393 -0.593541 -0.772888 
0.23105 -0.924395 -0.96796 0.0259598 0.113442 -0.993205 
0.420303 -0.620329 -0.852417 0.91645 -0.294705 -0.270683 
-0.0579911 -0.47676 0.728765 -0.047711 0.0704514 -0.996374 
-0.112072 -0.968636 -0.725076 -0.0511526 -0.968213 0.244842 
-0.752263 -0.471937 -0.778577 0.0874844 0.932675 -0.349949 
-0.648589 -0.388894 0.695658 -0.830029 0.430102 0.355055 
-0.332026 -0.914459 -0.781207 -0.359294 -0.687687 -0.630868 
0.429278 -0.570232 0.16939 0.619308 -0.784367 0.0350236 
-0.551023 -0.540235 -0.0147261 -0.397732 0.803201 -0.443483 
0.354316 -0.618556 -0.0168254 0.0448829 -0.995391 0.0847462 
0.230741 -0.883104 -0.355801 -0.962935 0.236657 -0.129422 
-0.213341 -0.579279 -0.875198 -0.317495 0.332461 -0.888069 
0.407793 -0.489455 -0.56632 0.118625 0.987092 -0.107599 
0.415112 -0.917621 0.24933 0.19747 -0.971747 0.129279 
-0.702869 -0.473374 -0.539383 -0.966476 0.209892 0.147886 
-0.552301 -0.729609 -0.0242829 -0.608845 -0.739404 -0.287384 
0.413516 -0.926008 0.194784 0.61025 -0.767399 0.196708 
-0.269287 -0.808528 -0.10094 -0.205235 -0.948427 -0.241587 
0.196659 -0.870581 0.589225 -0.192372 -0.952118 0.237624 
-0.824389 -0.372796 -0.0896949 -0.283059 0.922158 0.263631 
0.487179 -0.880977 0.0943229 0.896641 -0.440982 0.0396132 
0.466895 -0.439904 -0.115669 0.480969 0.87673 -0.00352048 
-0.784769 -0.557012 -0.62237 -0.77362 -0.0508506 0.631606 
-0.433706 -0.528164 -0.0979976 -0.388401 0.847928 -0.36078 
-0.800019 -0.955031 -0.726554 -0.113874 -0.986175 -0.120382 
0.462292 -0.531571 0.253579 0.613765 -0.718237 0.327763 
0.0965556 -0.42421 0.642412 -0.686162 0.598743 -0.413146 
0.472139 -0.410299 0.388714 0.851314 0.524458 0.0143978 
-0.818816 -0.728232 0.339236 -0.830562 -0.131025 -0.541294 
-0.374492 -0.483585 0.114703 -0.0243494 0.893509 0.448385 
-0.797509 -0.761042 0.333279 -0.821065 -0.24895 -0.51369 
0.485634 -0.503353 0.24809 0.957945 -0.192003 0.213251 
-0.821389 -0.596847 -0.676465 -0.67476 -0.250483 0.694231 
-0.145676 -0.51198 -0.811698 0.0131363 0.992623 -0.120525 
-0.665906 -0.334223 0.515 -0.452797 0.870021 0.195034 
-0.73377 -0.422073 -0.110666 0.693966 0.157902 -0.70248 
0.414511 -0.885334 0.462644 0.308767 -0.939643 0.147426 
-0.247684 -0.811941 -0.781309 -0.00165167 0.968014 -0.250891 
-0.190922 -0.645022 -0.209651 0.197875 0.0503738 -0.978932 
-0.0931041 -0.879798 -0.903568 -0.243676 0.239188 -0.9399 
-0.493198 -0.44608 0.406903 0.972035 0.192385 0.134669 
-0.479432 -0.461301 0.55264 0.912003 0.268188 -0.310365 
0.440625 -0.633773 0.702785 0.919645 -0.237371 0.312903 
-0.892925 -0.648082 -0.889846 0.227348 -0.933236 -0.278179 
-0.683021 -0.561949 0.734148 -0.997966 0.0610279 -0.018412 
-0.29881 -0.900509 -0.805397 -0.405598 -0.406009 -0.81893 
-0.973706 -0.836964 -0.765971 -0.717295 0.51499 0.469334 
0.199917 -0.845319 0.717854 -0.168019 -0.985783 -0.00099378 
-0.268592 -0.305019 0.800677 0.11375 0.922968 -0.367684 
0.384595 -0.857224 -0.686545 0.449834 0.84678 -0.283926 
0.0220362 -0.740556 0.390793 -0.865489 0.118113 -0.486803 
-0.715258 -0.662869 0.185364 -0.710504 0.177053 -0.681056 
-0.823228 -0.413834 -0.0397125 -0.749645 0.269392 0.604533 
-0.156469 -0.976164 -0.732497 0.00671471 -0.979208 0.202749 
0.473292 -0.787648 0.0129951 0.848586 0.526167 -0.0552289 
0.45777 -0.604629 -0.490019 0.898513 -0.438947 0.000348392 
-0.717906 -0.506491 -0.335407 0.722333 -0.560767 0.404693 
0.416029 -0.40488 0.176736 0.213572 0.975636 -0.050212 
0.0952765 -0.557062 0.304542 -0.757577 -0.0288752 -0.652107 
0.0432337 -0.527478 -0.775275 0.164829 0.970575 0.175541 
0.451739 -0.921126 0.0641509 0.641116 -0.753932 0.143378 
0.310803 -0.878068 0.495035 -0.0947039 -0.992689 0.0748284 
-0.792052 -0.595118 0.459273 -0.707005 0.707198 -0.00402899 
-0.895476 -0.464956 -0.220926 -0.792501 -0.292763 -0.535006 
-0.859825 -0.76914 0.455613 -0.51596 -0.852645 -0.0823519 
-0.492598 -0.413171 0.380679 0.933499 0.207119 0.292714 
0.249823 -0.842771 -0.486389 -0.838579 0.540966 -0.0643509 
0.306414 -0.853413 0.741088 0.164729 -0.951156 0.261087 
-0.799219 -0.33993 0.436695 -0.170877 0.985277 -0.00548796 
0.335237 -0.672176 0.321369 0.639306 0.40229 -0.655325 
-0.742973 -0.955537 -0.59151 0.165446 -0.985243 -0.0438593 
-0.0506946 -0.635951 -0.112353 0.869244 -0.0365068 -0.493034 
-0.440271 -0.663277 -0.186575 -0.443613 0.0512898 -0.894749 
-0.546304 -0.728137 -0.0391685 -0.563206 -0.723488 -0.399204 
0.093897 -0.940449 -0.941996 -0.140696 -0.525504 -0.839077 
-0.912721 -0.471031 -0.196559 -0.708378 -0.628254 -0.321712 
0.28722 -0.618491 -0.319558 -0.874606 -0.48438 0.0209931 
-0.797848 -0.584594 0.435958 -0.819937 0.569396 0.0590879 
-0.852315 -0.772863 -0.139099 0.0449338 0.998814 0.018763 
-0.232098 -0.347565 0.761554 0.211117 0.470565 -0.856737 
0.484372 -0.424174 0.255035 0.717989 0.692373 0.0714893 
-0.782133 -0.587456 -0.628033 -0.482949 -0.384361 0.786783 
-0.592437 -0.325572 0.379413 0.0301701 0.999542 0.00249397 
-0.48774 -0.630071 -0.752688 -0.171121 -0.533054 -0.828596 
-0.505457 -0.617858 -0.759117 -0.0673643 -0.530166 -0.845214 
-0.690024 -0.512893 0.719412 -0.932711 0.110415 0.343306 
-0.116962 -0.692148 -0.172966 0.451563 -0.382657 -0.806018 
-0.067143 -0.3202 0.908272 0.13333 0.986122 0.0989226 
-0.0467266 -0.581893 -0.0967211 0.798802 0.321655 -0.508382 
0.308416 -0.81239 -0.43647 -0.438862 0.877328 -0.194152 
-0.81804 -0.513805 0.47531 -0.784026 -0.557464 0.273016 
0.407963 -0.919115 0.224285 0.227174 -0.966111 0.122563 
-0.22297 -0.561652 -0.187039 0.158591 0.583826 -0.796239 
-0.0454655 -0.533343 -0.0130972 0.921343 0.381371 0.0753884 
0.233442 -0.895062 0.285774 -0.580888 -0.805739 -0.115557 
0.28475 -0.913266 0.145173 -0.247758 -0.964944 0.086601 
0.492448 -0.47475 0.0365879 0.976724 0.204162 0.0657854 
0.0897405 -0.394376 0.681401 -0.538065 0.54587 -0.642271 
-0.330496 -0.390956 0.714573 0.393947 0.340591 -0.8537 
-0.301757 -0.454711 -0.0206288 -0.215701 0.95393 -0.208544 
-0.776146 -0.373058 -0.134754 0.520845 0.597757 -0.609432 
-0.301196 -0.742903 -0.192703 -0.145686 -0.639146 -0.755161 
-0.6177 -0.398569 0.744598 -0.768301 0.526242 0.364394 
0.0327263 -0.526326 -0.803235 0.0828318 0.996502 -0.011057 
-0.797059 -0.446515 0.311343 -0.686058 -0.0139189 -0.727414 
0.14039 -0.956957 -0.728343 0.139786 -0.716394 0.68355 
0.3026 -0.537617 -0.855381 0.0831089 0.982239 -0.168227 
-0.413606 -0.549114 0.261646 0.95688 0.101116 0.272317 
0.243134 -0.846426 -0.306763 -0.94965 0.30525 0.0706284 
-0.281867 -0.507879 -0.691855 0.159424 0.968402 0.191787 
-0.740298 -0.829874 -0.451765 -0.657086 0.68242 -0.320221 
0.229586 -0.849949 -0.147526 -0.972624 0.22957 -0.0360613 
-0.720561 -0.339878 0.284702 -0.331954 0.863497 -0.379709 
-0.800991 -0.624352 -0.841846 0.4255 -0.415011 -0.804186 
-0.193555 -0.7193 -0.203948 0.251447 -0.33749 -0.907124 
-0.360596 -0.76802 0.761571 0.36563 -0.509415 -0.778981 
-0.842427 -0.878026 -0.642769 -0.785936 0.0399364 0.617017 
0.454487 -0.685053 0.592584 0.871779 -0.46957 0.13966 
-0.684748 -0.388912 0.171217 -0.643847 0.625004 -0.441397 
0.398297 -0.619748 -0.19707 0.251364 -0.96694 0.0429308 
-0.03732 -0.612727 -0.0930382 0.918502 0.040415 -0.393346 
0.47051 -0.439395 0.463642 0.974468 0.00990288 0.224307 
-0.769776 -0.737143 0.275631 -0.797 -0.238519 -0.554887 
-0.471277 -0.377004 0.294182 0.867514 0.406858 0.286157 
0.249675 -0.867301 0.596476 0.00934242 -0.975935 0.21786 
0.360558 -0.608642 -0.967421 0.825157 0.273201 -0.494446 
-0.364795 -0.723675 0.737345 0.370383 -0.602613 -0.706876 
-0.356682 -0.501947 -0.107428 -0.168942 0.824699 -0.539751 
-0.686138 -0.849139 -0.78668 0.302976 0.0700378 -0.950421 
-0.508205 -0.446578 0.113548 0.707588 -0.023484 -0.706235 
-0.764371 -0.431825 0.265956 -0.846293 0.136909 -0.514824 
-0.568568 -0.870535 0.295972 -0.144008 -0.975206 0.168032 
-0.901218 -0.780561 -0.806057 -0.0980761 0.99088 0.0924008 
0.441938 -0.889744 0.384108 0.443612 -0.872963 0.202842 
-0.753112 -0.83903 0.0890696 -0.729359 -0.0765366 0.679837 
-0.744359 -0.853379 -0.540583 -0.854788 0.0195693 0.518608 
-0.130845 -0.706004 -0.182106 0.396743 -0.414916 -0.818804 
-0.711902 -0.505787 -0.513784 -0.988763 -0.13698 -0.0598653 
0.399265 -0.403551 0.122044 0.056279 0.990697 -0.123906 
0.287812 -0.455315 0.123963 -0.971973 0.234427 0.0176657 
-0.670951 -0.798336 -0.734757 0.263449 0.769615 -0.581625 
0.40194 -0.658868 -0.591144 0.329108 -0.944227 0.0110861 
0.405793 -0.673275 0.767501 0.83715 -0.0676436 0.542775 
0.302618 -0.777782 -0.145295 -0.439579 0.865383 -0.240588 
-0.347509 -0.940386 -0.673084 0.00641774 -0.997204 0.0744506 
-0.494728 -0.36416 0.183008 0.60861 0.730719 -0.309263 
-0.671888 -0.52356 -0.411916 0.716504 -0.642306 0.272149 
-0.486902 -0.472366 0.508427 0.966837 0.129342 -0.220221 
-0.0606218 -0.981122 -0.808325 -0.147755 -0.97805 -0.146926 
0.380561 -0.446614 -0.301301 0.0121221 0.994831 -0.100823 
-0.679194 -0.582768 0.750035 -0.936906 -0.31954 0.141777 
0.432864 -0.728418 0.409892 0.824988 0.549801 0.13082 
0.351284 -0.367369 0.480112 0.134641 0.990569 -0.0253851 
-0.642093 -0.581389 0.065543 -0.873536 0.00457187 -0.486738 
-0.226622 -0.487269 -0.0986445 -0.00658983 0.864939 -0.501834 
-0.30615 -0.603819 -0.201292 -0.124055 0.462435 -0.877932 
-0.511761 -0.540016 -0.0458566 -0.464982 0.798004 -0.383382 
0.42376 -0.877983 0.486362 0.262764 -0.94694 0.185094 
0.376242 -0.621772 -0.119332 0.232465 -0.948788 0.213918 
0.428161 -0.726097 0.45904 0.889021 0.454404 -0.0562019 
0.437669 -0.940979 -0.139747 0.409426 -0.90602 0.107226 
0.361383 -0.358142 0.595832 0.208862 0.977263 -0.0365212 
-0.567325 -0.305184 0.587308 -0.126372 0.990182 0.059748 
0.400322 -0.730486 0.149351 0.136505 0.990478 0.0178695 
-0.168169 -0.752034 -0.160454 0.492815 -0.561907 -0.664375 
-0.518965 -0.337572 0.220035 0.224628 0.968082 -0.111178 
0.472366 -0.551494 -0.596919 0.978145 0.154038 -0.139661 
-0.721411 -0.404613 -0.325997 0.542867 0.82397 0.162385 
-0.164568 -0.488046 -0.095922 0.109253 0.83863 -0.533632 
0.463865 -0.585447 -0.273766 0.702114 -0.710522 0.0468503 
-0.163443 -0.570839 -0.183308 0.162939 0.47038 -0.867291 
0.327067 -0.66105 0.300857 0.775722 0.19784 -0.599262 
-0.82511 -0.77347 0.375235 -0.771342 -0.400517 -0.494588 
-0.122536 -0.746825 -0.14719 0.532805 -0.483126 -0.694772 
-0.501511 -0.847912 0.235228 0.63664 -0.696497 -0.33103 
-0.690313 -0.347487 0.255072 -0.439308 0.862105 -0.252554 
-0.538482 -0.303401 0.617854 0.141101 0.989879 0.0151654 
-0.764004 -0.455997 0.0550185 -0.811581 0.051749 0.581943 
-0.832655 -0.615141 -0.69978 -0.676033 -0.231138 0.699682 
0.268349 -0.486895 -0.401581 -0.93391 0.351684 -0.0642612 
0.32349 -0.47445 -0.460804 -0.0665959 0.977502 -0.200138 
0.264052 -0.557418 -0.308224 -0.96328 -0.252418 0.0915224 
-0.402427 -0.478638 0.114787 -0.227736 0.880659 0.415423 
0.16866 -0.53057 -0.800864 0.00133661 0.977552 0.210689 
0.348823 -0.603085 0.189199 0.108478 -0.991946 -0.0653923 
-0.724177 -0.477438 -0.772201 0.196932 0.853059 -0.483226 
-0.927454 -0.853121 -0.200168 -0.89292 -0.20591 -0.400368 
-0.723291 -0.488964 -0.000669104 -0.101323 -0.968018 0.229509 
0.102218 -0.385271 0.509954 -0.433487 0.892993 0.12105 
-0.115296 -0.958814 -0.833291 -0.238321 -0.881265 -0.408135 
-0.378531 -0.49783 -0.720387 0.0596225 0.998073 0.017197 
-0.25087 -0.664996 0.746962 0.0490953 -0.355395 -0.933426 
0.43046 -0.514804 -0.688501 0.550004 0.797477 -0.248045 
-0.589746 -0.853692 0.412672 0.110977 -0.993207 0.0349799 
-0.0858998 -0.77782 -0.035764 0.545841 -0.83786 -0.00701027 
-0.744766 -0.583599 0.27806 -0.849935 0.0490923 -0.524596 
0.434868 -0.591688 0.0187038 0.388766 -0.919616 0.0562778 
-0.325935 -0.496411 0.14568 -0.103232 0.783719 0.612477 
0.0277696 -0.681819 -0.906371 -0.330741 -0.758326 -0.56174 
-0.755848 -0.87419 -0.442619 -0.892354 0.0317557 -0.450217 
0.450834 -0.406152 0.234639 0.220225 0.975332 0.0151491 
-0.214331 -0.70274 0.273401 -0.822183 -0.563552 -0.080154 
0.324977 -0.790119 -0.299576 -0.272204 0.959209 -0.0763134 
-0.404599 -0.49259 -0.0415183 -0.372023 0.89605 -0.242266 
-0.452228 -0.423229 0.233903 0.925428 0.369029 -0.0860287 
-0.746133 -0.813336 -0.352582 0.158485 0.986073 0.0504194 
-0.934855 -0.791025 -0.80227 -0.307348 0.922733 0.232596 
0.485154 -0.86824 0.12272 0.911016 -0.412212 -0.0114241 
-0.0551269 -0.698502 0.209954 0.435069 -0.762843 -0.478316 
0.49253 -0.47172 -0.0144747 0.91751 0.343548 -0.200378 
0.473456 -0.571082 -0.466332 0.52179 -0.806943 -0.276728 
-0.639629 -0.848302 -0.778277 0.214809 0.062016 -0.974685 
-0.595236 -0.514927 0.863194 -0.682521 0.0483157 0.729268 
-0.16491 -0.806257 -0.774789 -0.00644079 0.956822 -0.290603 
-0.418139 -0.527893 0.628615 0.650405 0.0234126 -0.759227 
0.463363 -0.434742 -0.036526 0.378005 0.902626 -0.205859 
-0.303889 -0.610103 -0.217016 -0.0847044 0.407897 -0.90909 
0.23846 -0.843598 0.194373 -0.993837 0.110034 0.0134295 
0.400826 -0.507625 -0.661375 0.314047 0.936293 -0.157261 
-0.119357 -0.591843 0.734006 -0.00268307 -0.203944 -0.978979 
0.361141 -0.491356 -0.671204 0.104267 0.993829 -0.0378384 
-0.491929 -0.604041 0.482685 0.986283 -0.131269 -0.100071 
-0.755222 -0.802186 -0.296768 0.48468 0.871174 0.0783679 
-0.84577 -0.501435 -0.732234 -0.656661 0.408191 0.634173 
0.12546 -0.40308 0.309006 -0.422753 0.803537 -0.419057 
-0.697484 -0.880615 0.0640054 0.138199 -0.990324 -0.0126305 
-0.631412 -0.458683 -0.44443 0.884777 0.123292 0.44941 
0.274009 -0.935792 0.0127782 -0.346391 -0.93143 0.111585 
-0.798411 -0.845735 -0.819727 0.342459 -0.0257557 -0.93918 
-0.823241 -0.341993 0.435665 -0.363497 0.92201 -0.133293 
-0.671608 -0.554387 0.750375 -0.89746 0.0274249 0.440243 
-0.348143 -0.659337 -0.216609 -0.137886 0.134257 -0.981307 
0.458605 -0.750148 0.437046 0.691972 0.719641 0.0573746 
-0.435277 -0.680369 -0.188442 -0.374749 -0.139264 -0.916607 
-0.634464 -0.551921 0.057479 -0.690322 0.270531 -0.671021 
0.0424908 -0.394953 0.70475 -0.432842 0.587763 -0.683507 
-0.563151 -0.845518 0.454843 0.365639 -0.885547 0.286556 
-0.821091 -0.509038 -0.299185 -0.544275 -0.827472 -0.138039 
0.451141 -0.619908 -0.513512 0.745369 -0.666563 0.0109071 
-0.589579 -0.857395 0.324802 -0.0666965 -0.997363 -0.0286082 
-0.273811 -0.640399 0.728286 0.409473 -0.455804 -0.7903 
-0.605584 -0.514445 0.859162 -0.714553 0.0405586 0.698405 
-0.022244 -0.513652 0.714967 -0.42882 0.379788 -0.81968 
0.117695 -0.370741 0.479583 -0.387202 0.918017 0.0855538 
-0.479785 -0.551997 0.544258 0.976884 -0.0136014 -0.213338 
-0.63706 -0.315592 0.400463 -0.0233477 0.998951 -0.0394037 
-0.585701 -0.322882 0.636031 -0.312939 0.933791 0.173505 
-0.216942 -0.331993 0.770222 0.189696 0.509774 -0.839134 
0.149976 -0.837021 0.283669 -0.313888 -0.482555 -0.817689 
-0.307488 -0.939185 -0.749557 -0.145947 -0.960015 -0.238896 
0.471877 -0.582928 -0.462456 0.869607 -0.473253 -0.140768 
-0.595073 -0.615014 -0.767372 0.128299 -0.47777 -0.869066 
-0.647714 -0.554762 0.79912 -0.882967 0.11814 0.454326 
-0.748526 -0.828413 0.434036 -0.528295 -0.808329 -0.259824 
-0.226315 -0.29641 0.880064 0.0301128 0.993877 0.106309 
0.349303 -0.674782 -0.731667 0.144211 -0.989505 -0.00917075 
-0.989738 -0.852381 -0.899596 -0.476134 0.0510711 -0.877888 
0.475242 -0.511621 -0.503553 0.881035 0.460061 -0.110096 
-0.730964 -0.836198 0.404835 -0.394719 -0.91828 -0.0309621 
0.429624 -0.887412 0.377671 0.400693 -0.908668 0.117333 
0.225073 -0.874232 0.538852 -0.157685 -0.987042 0.0297171 
-0.62542 -0.66661 0.0631511 -0.829767 0.00881203 -0.55804 
-0.785283 -0.815637 -0.180778 0.825599 0.499802 0.261884 
-0.352504 -0.436447 0.701255 0.466493 0.0728187 -0.881522 
0.279377 -0.525996 0.0115582 -0.972518 -0.176945 0.151325 
0.0947643 -0.874555 0.491482 -0.323838 -0.919722 0.221902 
-0.0494637 -0.528267 0.25206 0.767094 0.615071 -0.18236 
0.453781 -0.452008 -0.202794 0.352305 0.928456 -0.117686 
-0.0886352 -0.472194 0.726893 -0.372661 0.111083 -0.921295 
0.432647 -0.443884 -0.139486 0.127681 0.971207 -0.201131 
-0.297735 -0.567319 -0.183473 -0.0596434 0.426671 -0.902438 
-0.597086 -0.716044 0.0395484 -0.362598 -0.672505 -0.645182 
-0.359112 -0.523112 0.682505 0.492968 0.117717 -0.862047 
0.249166 -0.552519 -0.540879 -0.860548 -0.365265 0.355018 
-0.721112 -0.394101 -0.0969861 0.667102 0.2776 -0.691312 
0.307611 -0.8627 0.69243 0.0898476 -0.989937 0.109324 
0.27214 -0.768354 0.0121913 -0.78926 0.607044 -0.0925511 
-0.0966808 -0.754679 0.258105 -0.0216238 -0.945129 -0.32598 
-0.0724649 -0.715948 -0.117638 0.718488 -0.418172 -0.555795 
0.229539 -0.879312 0.506449 -0.037049 -0.997255 0.0641076 
0.283614 -0.473339 -0.306629 -0.720816 0.680132 -0.133586 
