ply
format ascii 1.0
comment VCGLIB generated
element vertex 813
property float x
property float y
property float z
property float nx
property float ny
property float nz
element face 0
property list uchar int vertex_indices
end_header
0.325004 -0.70503 -0.624028 0.719137 0.69322 -0.0478419 
0.323308 -0.699168 -0.602258 -0.415994 0.785425 0.45832 
0.321572 -0.69759 -0.576564 0.438863 0.824321 -0.357623 
0.318702 -0.696554 -0.553326 -0.026304 0.929726 -0.367311 
0.314308 -0.692398 -0.532012 0.204115 0.966594 0.155025 
0.31024 -0.688424 -0.507932 0.916041 0.4007 0.0175735 
0.310946 -0.688364 -0.484642 0.52181 0.605977 -0.600421 
0.305498 -0.68367 -0.4584 0.47619 0.532494 -0.699781 
0.30408 -0.682218 -0.434704 0.766078 -0.207393 -0.608369 
0.301166 -0.68288 -0.413826 -0.173317 0.94258 0.285489 
0.29827 -0.679574 -0.387086 0.50875 0.230521 0.829478 
0.293928 -0.675436 -0.365692 0.830658 0.238867 -0.50294 
0.29352 -0.674574 -0.33956 0.93941 -0.334473 0.075082 
0.288528 -0.673086 -0.318624 0.271227 0.347923 -0.897433 
0.28623 -0.667114 -0.292818 0.414884 -0.848817 0.32769 
0.28326 -0.665762 -0.270346 0.0873564 -0.42467 -0.901124 
0.281586 -0.66448 -0.247316 0.794048 0.0613993 0.604745 
0.275362 -0.662058 -0.22162 0.400769 0.368401 0.838847 
0.273936 -0.656668 -0.199202 0.205348 0.758618 -0.61833 
0.271468 -0.655086 -0.174964 0.00997684 -0.389344 -0.921038 
0.268696 -0.651476 -0.150148 0.353758 -0.927254 0.122705 
0.265134 -0.64726 -0.128914 0.360972 -0.842648 0.399554 
0.073908 0.28028 -0.267328 -0.748204 0.652919 0.117842 
0.06964 0.275374 -0.23364 -0.917332 0.392315 0.0677643 
0.065328 0.271814 -0.197698 0.189971 0.972249 0.136537 
0.202564 -0.396814 -0.064344 0.679946 -0.731982 -0.0432972 
0.200184 -0.391598 -0.038746 0.735468 -0.585197 0.341513 
0.19898 -0.394124 -0.014136 0.14766 -0.854921 -0.497299 
0.19326 -0.392412 0.0164 0.0514342 -0.734731 0.676406 
0.190238 -0.388676 0.042972 0.624832 -0.699042 0.347742 
0.154474 -0.236344 0.0509659 0.520294 -0.336726 -0.784799 
0.153352 -0.236166 0.081264 -0.333447 -0.574213 -0.747725 
0.332656 -0.439932 -0.975364 0.0156972 -0.901621 0.432243 
0.327484 -0.440966 -0.943966 0.0508194 -0.868494 0.493088 
0.323914 -0.438018 -0.916874 -0.912551 -0.251331 -0.322621 
0.321194 -0.438274 -0.889139 -0.869928 -0.331049 -0.365558 
0.318266 -0.435148 -0.866243 -0.779211 -0.608373 0.150703 
0.317104 -0.435822 -0.836415 -0.791522 -0.478063 -0.380722 
0.313234 -0.435162 -0.811449 -0.746291 -0.646214 0.159555 
0.360086 -0.714698 -0.665022 0.695245 -0.621421 -0.361207 
0.358316 -0.723962 -0.637072 0.999914 0.012819 0.00279305 
0.356318 -0.723586 -0.61136 0.818361 0.234968 -0.524477 
0.352404 -0.72461 -0.588776 -0.258618 0.780536 0.569105 
0.351066 -0.719168 -0.565994 0.383634 0.785584 -0.485472 
0.345694 -0.719246 -0.541056 0.68961 0.722694 -0.0463869 
0.34402 -0.718624 -0.516594 -0.386635 0.921669 -0.0322503 
0.339552 -0.714872 -0.494528 -0.198495 0.965226 0.170114 
0.338664 -0.713684 -0.471514 0.411134 0.0561258 0.909845 
0.335726 -0.709286 -0.447396 0.601725 0.57458 -0.554784 
0.330144 -0.707274 -0.42159 0.994161 0.107889 0.00174604 
0.329458 -0.70581 -0.399184 0.924025 0.0868526 -0.372335 
0.32458 -0.70168 -0.375806 0.168681 0.811946 0.558829 
0.321416 -0.698882 -0.351822 0.284882 0.205205 -0.93634 
0.3186 -0.696298 -0.330004 -0.293189 0.29418 -0.909669 
0.315396 -0.696392 -0.304594 0.917 0.398304 0.0215634 
0.314176 -0.691592 -0.28133 0.90967 -0.314139 -0.271692 
0.31055 -0.69082 -0.257714 0.990452 -0.0419722 -0.131314 
0.30666 -0.687312 -0.234662 -0.345052 0.933696 0.0956646 
0.304202 -0.68089 -0.2124 0.102219 0.719085 -0.687363 
0.29966 -0.673708 -0.191128 0.774186 0.319031 0.546677 
0.108054 0.339912 -0.373336 -0.701932 0.71138 0.0350811 
0.101722 0.334518 -0.340584 -0.942454 0.210236 0.259965 
0.10051 0.326114 -0.304746 -0.912816 0.368025 -0.17699 
0.0981541 0.325866 -0.269854 0.0103803 -0.0125105 0.999868 
0.235594 -0.407598 -0.115922 0.228863 -0.970214 -0.0794172 
0.232564 -0.406448 -0.088516 -0.720922 -0.539864 -0.434532 
0.233474 -0.407818 -0.062382 -0.86922 -0.356489 0.342596 
0.22954 -0.404426 -0.036574 -0.5174 -0.82661 0.221388 
0.224334 -0.40282 -0.00523602 0.167538 -0.452913 -0.875672 
0.22474 -0.402984 0.016296 -0.597806 -0.706986 0.377888 
0.18671 -0.240952 0.026906 -0.985769 0.0483348 -0.16101 
0.18528 -0.238818 0.057626 -0.552974 0.37878 -0.742122 
0.356862 -0.453238 -0.96149 0.286176 -0.930295 -0.229467 
0.355606 -0.450748 -0.93408 -0.874515 0.314425 -0.36927 
0.350962 -0.451478 -0.905586 0.891766 -0.336534 0.302485 
0.347984 -0.44793 -0.881356 0.904805 -0.424678 0.0312675 
0.347086 -0.447466 -0.851443 0.773766 -0.632176 -0.0405014 
0.34604 -0.447182 -0.826821 -0.328808 -0.625162 0.707855 
0.339472 -0.445894 -0.80201 0.771438 -0.629024 0.0959827 
0.335806 -0.442752 -0.771504 0.446999 -0.859837 -0.246723 
0.33765 -0.44344 -0.745928 -0.263772 -0.838492 0.476818 
0.33045 -0.442546 -0.719738 -0.126268 -0.965018 -0.229775 
0.331594 -0.437998 -0.691106 -0.164707 -0.983646 0.0728838 
0.232792 0.144406 -0.890384 -0.759094 0.541866 0.360774 
0.22834 0.14561 -0.856246 -0.918926 -0.00549291 -0.394393 
0.369942 -0.724024 -0.512238 -0.686713 0.724527 -0.0590476 
0.366318 -0.724952 -0.487356 0.948877 0.293784 0.11543 
0.365806 -0.726082 -0.461516 0.989943 -0.104018 0.095881 
0.362686 -0.725118 -0.436676 0.987801 0.119201 -0.100207 
0.356642 -0.724594 -0.411862 0.143859 0.914359 -0.378486 
0.353286 -0.721142 -0.388954 0.251849 -0.967749 0.0058932 
0.351604 -0.715856 -0.367694 0.735372 -0.536032 0.414604 
0.348926 -0.714874 -0.345902 0.517624 -0.745658 0.419594 
0.346592 -0.710056 -0.321202 0.368966 -0.894795 0.251409 
0.340738 -0.702134 -0.301346 0.816367 -0.518382 0.254609 
0.14651 0.406918 -0.557408 -0.782173 0.273329 -0.559908 
0.142286 0.40327 -0.521678 -0.987469 0.141427 0.0700241 
0.141574 0.394864 -0.48553 -0.830045 0.554509 0.0595331 
0.138552 0.390694 -0.45125 -0.77213 0.42921 -0.468608 
0.132974 0.387698 -0.416838 -0.836118 0.511615 0.19788 
0.133218 0.38076 -0.377882 -0.873221 0.312406 -0.374015 
0.126828 0.379056 -0.34074 -0.767277 0.632071 -0.108496 
0.269916 -0.418216 -0.160428 0.991468 0.0227307 0.128352 
0.266612 -0.418018 -0.136664 0.332128 -0.831535 -0.445242 
0.267166 -0.416496 -0.106054 -0.421968 -0.824692 0.376597 
0.263006 -0.416356 -0.082994 0.0308015 -0.529741 -0.8476 
0.258768 -0.417144 -0.053754 -0.153879 -0.987402 0.0368514 
0.255824 -0.414784 -0.027908 -0.376395 0.807938 -0.45339 
0.254674 -0.408968 -0.00205402 0.19577 -0.780336 0.593928 
0.216974 -0.238846 0.00132599 0.461993 -0.875135 0.143878 
0.216366 -0.23698 0.0290699 -0.179448 -0.861183 -0.475565 
0.184798 -0.08788 0.044358 -0.742753 0.497382 -0.448251 
0.387434 -0.461108 -0.951444 -0.151517 -0.971954 -0.179856 
0.381276 -0.459278 -0.924835 0.933622 -0.305387 -0.18732 
0.38115 -0.45999 -0.897797 0.772326 -0.595691 0.220601 
0.379002 -0.45799 -0.869768 -0.985718 0.0842023 0.145842 
0.374212 -0.45582 -0.840269 -0.851695 0.494812 -0.172559 
0.369774 -0.45759 -0.815552 -0.90173 0.400118 -0.163668 
0.370534 -0.45343 -0.789826 -0.889377 -0.37194 0.265839 
0.364908 -0.453154 -0.762736 -0.82503 -0.306407 -0.474805 
0.364704 -0.452818 -0.735664 -0.789701 -0.57197 0.221862 
0.361218 -0.450278 -0.711234 -0.621753 -0.748905 -0.229268 
0.359858 -0.452454 -0.682316 -0.247651 -0.672683 -0.697256 
0.35447 -0.450144 -0.65752 -0.217359 -0.961733 -0.166806 
0.350666 -0.447652 -0.627664 -0.61982 -0.580621 -0.527922 
0.348846 -0.447678 -0.603342 0.224084 -0.974447 0.0154682 
0.347306 -0.446718 -0.579378 0.702739 -0.703492 0.106098 
0.342306 -0.445976 -0.550418 0.322987 -0.882107 0.34288 
0.245174 0.155702 -0.719504 -0.359785 -0.90106 -0.24217 
0.24124 0.155154 -0.688148 -0.450836 -0.891967 -0.0337922 
0.240546 0.152652 -0.651922 -0.474446 -0.87664 -0.080028 
0.238046 0.150052 -0.617918 -0.0421355 -0.841923 -0.537949 
0.232184 0.148282 -0.585976 -0.537156 0.833221 0.13117 
0.23 0.156876 -0.554132 -0.157833 0.970996 -0.179598 
0.310048 -0.43296 -0.259866 0.0364205 -0.998457 0.0419138 
0.306596 -0.431562 -0.2347 0.00451423 -0.984547 -0.17506 
0.305956 -0.434168 -0.20972 -0.138453 -0.948347 0.285428 
0.304218 -0.42885 -0.181844 -0.21459 -0.976047 0.0358224 
0.30149 -0.431682 -0.155442 -0.707483 -0.473891 -0.524305 
0.295978 -0.428982 -0.130486 -0.88615 -0.463059 0.0177722 
0.294128 -0.429622 -0.102922 -0.609511 -0.547035 0.573803 
0.29041 -0.42777 -0.07634 -0.0919745 -0.846768 -0.523951 
0.286424 -0.423874 -0.051992 -0.212186 -0.959866 -0.183395 
0.25365 -0.239252 -0.047884 -0.107744 -0.304716 -0.946329 
0.249978 -0.238038 -0.021356 -0.218156 -0.300962 0.928348 
0.246794 -0.236964 0.00587598 -0.409312 -0.795153 -0.447432 
0.213044 -0.07605 0.017798 -0.276226 0.879032 -0.388589 
0.412262 -0.471244 -0.91358 0.0714422 -0.928041 0.365562 
0.409498 -0.467514 -0.884498 0.397244 -0.793716 0.460664 
0.40314 -0.468928 -0.857158 -0.89668 0.42415 -0.126735 
0.40381 -0.465762 -0.831014 -0.78111 0.615663 -0.10405 
0.397024 -0.466524 -0.803553 -0.775394 0.624682 0.0923907 
0.397156 -0.466646 -0.778098 -0.72075 0.687462 0.0889685 
0.39173 -0.463644 -0.750346 -0.343601 -0.939002 0.0146269 
0.3913 -0.465376 -0.724292 0.0825106 -0.872746 -0.481152 
0.387318 -0.460146 -0.701548 0.128674 -0.551832 0.823969 
0.385552 -0.461808 -0.671742 -0.426984 -0.489089 0.760576 
0.381732 -0.46259 -0.646498 -0.767973 -0.629949 -0.115678 
0.378308 -0.459624 -0.621234 -0.476714 -0.832125 -0.283394 
0.374848 -0.456034 -0.596552 -0.375844 -0.911792 0.165459 
0.371256 -0.45838 -0.567884 0.139867 -0.988868 -0.050767 
0.368852 -0.4542 -0.540928 0.774845 -0.417633 0.474551 
0.367782 -0.453188 -0.51448 0.316167 -0.924071 0.214783 
0.364994 -0.4545 -0.489558 -0.423591 -0.88178 0.207449 
0.359406 -0.45309 -0.462696 -0.774834 -0.602433 0.191588 
0.35937 -0.449422 -0.434972 -0.561946 -0.683954 -0.465214 
0.35649 -0.44802 -0.409272 -0.492157 -0.800289 -0.342518 
0.352894 -0.450932 -0.385876 -0.400556 -0.916109 -0.0172793 
0.352586 -0.45069 -0.356944 -0.145068 -0.976685 0.158248 
0.348168 -0.445606 -0.334228 -0.294447 -0.8604 -0.415949 
0.343328 -0.448014 -0.307658 0.612856 -0.742343 -0.270804 
0.343416 -0.445478 -0.278918 0.991254 -0.102638 -0.082953 
0.338966 -0.443094 -0.252846 0.976102 -0.216972 0.0121667 
0.335994 -0.443222 -0.22743 0.919827 0.218487 0.325854 
0.33215 -0.442508 -0.20299 -0.867489 0.448456 0.215292 
0.33079 -0.441654 -0.174082 -0.981956 -0.18672 -0.0299625 
0.329572 -0.441324 -0.15145 -0.956164 -0.0513774 -0.288289 
0.326184 -0.441024 -0.125624 -0.534828 0.499655 -0.681398 
0.323978 -0.437774 -0.099954 -0.875452 -0.483253 -0.00716589 
0.317318 -0.437436 -0.07354 0.618375 -0.717932 0.319666 
0.282642 -0.240214 -0.073214 -0.271279 0.382434 -0.883262 
0.277988 -0.238788 -0.047938 -0.15888 0.580591 -0.798543 
0.275814 -0.237614 -0.01891 -0.22622 -0.969685 0.0923862 
0.245486 -0.06499 -0.00646997 -0.507056 0.757887 -0.410488 
0.434424 -0.477672 -0.875516 0.866813 -0.492239 -0.0795973 
0.43215 -0.477466 -0.849674 0.827422 -0.553402 0.095495 
0.431654 -0.479258 -0.819881 0.199943 -0.720306 -0.664216 
0.42525 -0.47553 -0.793114 -0.994944 -0.0892397 -0.0460665 
0.425338 -0.474302 -0.769232 -0.997927 0.0204142 -0.0610311 
0.419342 -0.476218 -0.743842 -0.855043 -0.5173 0.0360759 
0.41624 -0.471052 -0.716086 -0.485684 -0.194829 0.852146 
0.4138 -0.473732 -0.689274 -0.122058 -0.8063 -0.578776 
0.413874 -0.473422 -0.666332 -0.906445 -0.029238 0.421311 
0.406962 -0.470992 -0.639672 -0.271882 -0.954463 -0.122799 
0.407616 -0.469952 -0.610558 -0.227167 -0.898002 0.376813 
0.401416 -0.469974 -0.584092 -0.998099 0.0576314 0.0218357 
0.402844 -0.46702 -0.561346 0.0841931 -0.698913 0.710234 
0.395944 -0.46686 -0.531956 0.743945 -0.667751 0.0256087 
0.39423 -0.46291 -0.508476 0.657141 -0.74972 0.0780084 
0.394082 -0.462168 -0.47958 0.0530132 -0.894007 -0.444906 
0.38969 -0.464214 -0.456206 -0.0071234 -0.699902 0.714204 
0.387134 -0.463986 -0.427236 0.342683 -0.911971 -0.22556 
0.381776 -0.459202 -0.405434 0.750438 -0.489275 -0.444357 
0.381558 -0.459896 -0.375566 0.0559586 -0.849198 0.525101 
0.380024 -0.459408 -0.350338 0.314349 -0.536829 0.782942 
0.373722 -0.455178 -0.32741 -0.0410567 -0.494078 0.868447 
0.371122 -0.454252 -0.301826 0.135882 -0.867558 -0.478414 
0.366824 -0.45324 -0.273676 0.302724 -0.927471 -0.219445 
0.365232 -0.45475 -0.247934 0.526118 -0.850014 -0.0260048 
0.362914 -0.450966 -0.224112 0.810377 -0.580732 0.0777177 
0.360514 -0.451186 -0.197982 0.725324 -0.676711 -0.126362 
0.36003 -0.449432 -0.172038 -0.880298 -0.24813 -0.404361 
0.354222 -0.45072 -0.14599 -0.823563 -0.45784 -0.334853 
0.352038 -0.447528 -0.118706 -0.709433 0.38588 -0.589747 
0.314692 -0.241054 -0.128476 -0.429223 0.140127 0.892263 
0.314396 -0.239324 -0.096854 -0.157697 -0.721319 -0.674412 
0.312336 -0.23812 -0.071774 0.0508719 -0.430161 -0.901318 
0.306774 -0.239184 -0.044324 0.161421 -0.979243 0.122582 
0.276276 -0.05469 -0.037546 -0.757782 0.435366 0.486028 
0.431616 -0.237566 -0.948755 0.354384 0.849777 -0.390245 
0.452168 -0.474342 -0.815055 0.816559 -0.549843 -0.175795 
0.452184 -0.485114 -0.7865 0.868517 -0.437463 -0.233034 
0.449524 -0.486918 -0.760038 0.577864 -0.67881 0.45309 
0.446028 -0.485648 -0.73431 -0.464383 -0.6785 -0.569198 
0.443948 -0.483606 -0.709148 -0.614343 0.488312 0.619785 
0.441122 -0.479784 -0.679588 -0.341411 -0.590045 -0.731632 
0.440914 -0.479332 -0.655518 -0.0615017 -0.00142099 0.998106 
0.434144 -0.477536 -0.631212 -0.15143 -0.0881209 -0.984532 
0.431188 -0.47711 -0.605014 -0.0364519 -0.37801 -0.925084 
0.431728 -0.479438 -0.579158 0.111278 -0.86156 0.495309 
0.427542 -0.475406 -0.550232 -0.787604 -0.176077 0.590488 
0.422744 -0.477538 -0.523396 -0.801904 -0.426415 0.418473 
0.423758 -0.473922 -0.499294 -0.988988 0.145739 0.0257482 
0.417246 -0.472008 -0.471092 -0.994399 0.0942494 -0.0478195 
0.4182 -0.47399 -0.446898 -0.710799 -0.190195 0.677193 
0.412654 -0.473766 -0.420768 -0.885826 -0.447398 0.123077 
0.411122 -0.46989 -0.397292 -0.837221 -0.535577 -0.110532 
0.409466 -0.47122 -0.36923 -0.0912435 0.756462 -0.647642 
0.402042 -0.470234 -0.346766 -0.852601 -0.444552 -0.274674 
0.401868 -0.466264 -0.320024 0.155671 -0.424356 -0.892014 
0.401046 -0.466496 -0.295268 -0.500436 -0.84778 -0.175593 
0.395742 -0.462932 -0.26953 -0.562853 0.643675 0.518535 
0.390656 -0.462456 -0.239664 0.580945 -0.813273 -0.0330256 
0.389472 -0.463926 -0.214202 0.939468 -0.333048 0.0804919 
0.386586 -0.461464 -0.188366 0.932692 -0.320134 -0.166131 
0.384856 -0.462738 -0.165072 -0.56998 -0.065235 -0.819065 
0.378898 -0.455598 -0.140752 -0.396606 0.671792 -0.625619 
0.34722 -0.239276 -0.150036 -0.287134 -0.922478 0.258049 
0.345562 -0.239118 -0.123728 -0.225149 -0.761058 -0.608358 
0.341092 -0.236874 -0.093598 0.0557158 -0.792055 -0.607902 
0.338222 -0.237836 -0.066692 0.15393 -0.609902 -0.777383 
0.304964 -0.041744 -0.061224 -0.653621 0.61103 -0.446567 
0.455366 -0.236394 -0.915871 0.897902 0.40731 -0.166945 
0.45284 -0.238746 -0.883436 -0.285026 0.936637 -0.203643 
0.448112 -0.239322 -0.855107 0.92258 -0.379521 -0.0693559 
0.471948 -0.490698 -0.722564 -0.55542 -0.778003 0.293632 
0.471138 -0.492494 -0.69523 0.274527 -0.911753 -0.305518 
0.465702 -0.493296 -0.672882 -0.0992185 -0.706063 -0.701164 
0.467278 -0.489884 -0.644488 -0.683356 -0.230905 0.692609 
0.463652 -0.488412 -0.6183 0.492009 -0.122092 -0.861986 
0.461344 -0.489148 -0.592652 0.438491 -0.503668 -0.744341 
0.455848 -0.489382 -0.566554 0.190464 -0.881599 0.431865 
0.453262 -0.485978 -0.54482 0.450162 -0.346182 0.823111 
0.44903 -0.48762 -0.517396 0.59877 -0.799042 0.0548249 
0.448982 -0.482292 -0.490418 0.490555 -0.868899 -0.0661049 
0.447244 -0.480896 -0.46356 0.526727 -0.386462 0.757103 
0.441642 -0.484338 -0.43769 0.758252 -0.651889 -0.00974629 
0.441536 -0.481554 -0.41247 -0.706398 0.608197 -0.362074 
0.43855 -0.478326 -0.388332 -0.619587 0.716294 0.320992 
0.4317 -0.481518 -0.363464 -0.0804663 -0.549197 -0.83181 
0.431048 -0.478826 -0.338812 0.0172229 -0.519076 -0.854555 
0.430456 -0.47911 -0.313898 0.0245007 -0.522588 -0.852233 
0.425544 -0.47682 -0.288404 -0.0688587 -0.669679 0.739452 
0.422768 -0.475928 -0.26035 -0.129467 -0.0162594 -0.99145 
0.417728 -0.471364 -0.236302 -0.266276 -0.878142 -0.397447 
0.414916 -0.473794 -0.208564 0.544983 -0.835012 0.0758242 
0.412048 -0.461758 -0.184586 -0.549128 -0.796851 -0.251967 
0.381496 -0.236914 -0.200912 0.041737 0.100433 0.994068 
0.376548 -0.237446 -0.171784 0.658828 -0.119537 0.742735 
0.376918 -0.238484 -0.147386 0.333709 -0.547736 -0.767218 
0.373656 -0.236658 -0.117348 0.781446 -0.59978 -0.172065 
0.368686 -0.236506 -0.092062 0.25162 -0.706076 0.661925 
0.33568 -0.030876 -0.092616 0.305635 0.940286 0.149833 
0.474516 -0.237256 -0.850358 -0.549867 0.834906 0.0240379 
0.47383 -0.240448 -0.823418 -0.324672 0.943951 0.0595338 
0.471276 -0.238058 -0.794514 -0.769822 0.638092 0.0145745 
0.465166 -0.236494 -0.762222 -0.858197 0.269194 -0.437074 
0.49192 -0.486124 -0.640754 -0.280593 -0.754711 0.593026 
0.48994 -0.49606 -0.610074 -0.951353 -0.246434 0.184924 
0.484728 -0.495998 -0.58386 -0.92915 -0.368817 0.0255552 
0.481028 -0.49699 -0.559522 -0.495983 -0.867291 0.0425003 
0.480128 -0.495534 -0.53469 -0.583089 -0.759389 0.28868 
0.475002 -0.495348 -0.510324 -0.618843 -0.47443 -0.626058 
0.472004 -0.495044 -0.481292 -0.503801 0.241482 -0.82938 
0.472818 -0.491072 -0.459904 -0.12019 -0.555998 0.822448 
0.467752 -0.488944 -0.434012 0.932752 -0.343576 -0.109226 
0.464152 -0.492778 -0.406144 0.699922 -0.628629 0.339019 
0.460584 -0.487936 -0.379746 -0.79888 -0.600703 -0.0307643 
0.460686 -0.488196 -0.355812 0.12408 -0.894451 -0.429605 
0.457718 -0.488732 -0.330956 -0.207024 -0.613197 0.76232 
0.453258 -0.484234 -0.305492 -0.165716 -0.953845 -0.250436 
0.453326 -0.486328 -0.278362 0.0642802 -0.995866 0.0641725 
0.448086 -0.476912 -0.258046 0.376606 -0.919298 -0.114274 
0.417646 -0.237076 -0.281134 -0.428812 0.472679 -0.769867 
0.412634 -0.239192 -0.254612 -0.500606 0.705613 -0.501501 
0.412422 -0.238558 -0.224678 -0.748933 0.585207 0.310856 
0.405342 -0.238578 -0.196286 -0.136674 0.619452 0.773045 
0.405934 -0.240252 -0.167802 -0.641271 0.658713 0.393534 
0.400142 -0.240592 -0.141062 0.861088 -0.482465 0.160484 
0.36904 -0.018482 -0.150918 0.508526 0.859555 -0.0506716 
0.496544 -0.239922 -0.787302 -0.908195 0.272388 0.317783 
0.493452 -0.240666 -0.75855 -0.969448 0.245275 0.00319777 
0.49051 -0.236986 -0.730382 -0.0312258 0.927009 0.373736 
0.488368 -0.236432 -0.699678 -0.295749 0.552707 0.779133 
0.486932 -0.236782 -0.669958 0.147123 0.818336 0.55559 
0.484314 -0.240112 -0.644618 0.249366 0.58694 -0.770271 
0.479614 -0.241048 -0.614322 0.431506 0.800439 0.416052 
0.475352 -0.239814 -0.588894 0.496834 0.850804 0.171138 
0.471116 -0.239334 -0.557962 0.222715 0.91083 0.347543 
0.470248 -0.240454 -0.530032 0.438986 0.853538 0.280651 
0.491398 -0.487452 -0.430946 -0.435247 -0.900217 -0.0130455 
0.488798 -0.48936 -0.403368 -0.0105824 -0.999563 0.0276208 
0.462222 -0.238812 -0.447634 -0.861619 0.485368 -0.148429 
0.45931 -0.24037 -0.416924 -0.719887 0.0455995 -0.692592 
0.454202 -0.237762 -0.38835 0.261052 0.591951 -0.762526 
0.454222 -0.240908 -0.361816 0.454629 0.686008 -0.568071 
0.447876 -0.239496 -0.331498 0.614192 0.577588 0.537736 
0.44874 -0.236384 -0.306268 0.681756 0.722045 -0.117729 
0.442906 -0.238308 -0.275904 -0.354143 0.933788 -0.0512182 
0.440334 -0.24093 -0.249846 0.449851 0.384517 0.80609 
0.438568 -0.240058 -0.221686 0.553422 0.609053 0.568137 
0.435096 -0.23838 -0.19624 0.499348 0.843862 -0.196339 
0.4305 -0.236388 -0.16765 0.782348 0.620863 -0.0496036 
0.513708 -0.238986 -0.697264 0.389449 0.91375 0.115715 
0.512328 -0.237298 -0.665342 -0.0993929 0.832761 0.544637 
0.510472 -0.239426 -0.636118 0.214768 0.974965 -0.0576072 
0.50848 -0.23767 -0.61214 -0.910932 0.381868 -0.156138 
0.505644 -0.236444 -0.583956 -0.940574 0.0859664 -0.328528 
0.499766 -0.238072 -0.553586 -0.991212 -0.0886581 -0.0981726 
0.499606 -0.240976 -0.52309 -0.484822 0.319582 0.814134 
0.495984 -0.240992 -0.495454 0.535168 0.578046 -0.616001 
0.49396 -0.238024 -0.470552 0.296257 0.74091 -0.602731 
0.48678 -0.237442 -0.44101 0.307485 0.909427 -0.279993 
0.483862 -0.23822 -0.411524 -0.123666 0.645381 -0.753784 
0.482326 -0.238642 -0.387288 -0.561729 0.692939 0.451991 
0.480808 -0.240786 -0.35699 0.770781 -0.335217 -0.541781 
0.47778 -0.23846 -0.32976 0.555481 0.593809 -0.582092 
0.471432 -0.238804 -0.299764 -0.959487 0.229983 -0.162766 
0.469992 -0.23804 -0.27524 0.699965 0.709999 0.077141 
0.469414 -0.240064 -0.24435 -0.89422 0.446127 0.036622 
0.462938 -0.23584 -0.215794 0.0729351 0.990925 0.112908 
0.53306 -0.2376 -0.60458 -0.296845 0.952832 -0.0631995 
0.528346 -0.237664 -0.57564 0.330358 0.943052 -0.0389402 
0.525126 -0.238762 -0.54977 -0.041085 0.985509 0.164573 
0.525056 -0.237484 -0.518004 -0.837632 -0.545169 0.0341066 
0.521554 -0.236058 -0.491702 0.200696 0.92618 0.319237 
0.516074 -0.236932 -0.465452 0.4623 0.786779 0.408972 
0.51703 -0.236874 -0.438276 0.636499 0.621835 -0.456278 
0.510884 -0.237284 -0.410406 0.353768 0.656363 -0.66636 
0.508122 -0.23896 -0.380046 0.16077 0.891017 -0.42455 
0.505594 -0.23773 -0.349952 -0.504683 0.842434 -0.188682 
0.501674 -0.240118 -0.322942 -0.815933 0.52134 -0.249916 
0.500866 -0.238396 -0.297486 -0.792048 0.426531 -0.436728 
-0.956718 -0.25155 -0.762798 0.561638 -0.753749 -0.341211 
-0.960189 -0.255936 -0.737124 -0.723112 -0.630331 0.282475 
-0.963761 -0.256134 -0.70748 -0.0402262 0.12537 0.991294 
-0.965927 -0.251966 -0.684216 0.273926 -0.518202 -0.810204 
-0.966248 -0.254054 -0.65359 0.91002 0.137125 0.39123 
-0.969313 -0.25212 -0.626784 0.126176 -0.722732 0.679514 
-0.974151 -0.252302 -0.602972 0.672257 -0.705259 -0.225123 
-0.973882 -0.255452 -0.57389 0.624012 -0.71077 -0.324678 
-0.979563 -0.251904 -0.54487 -0.752892 -0.508631 -0.41767 
-0.981586 -0.252524 -0.517076 -0.662712 -0.74664 0.0578145 
-0.982363 -0.252014 -0.492038 -0.770253 -0.629105 -0.104581 
-0.98201 -0.25471 -0.466298 0.52011 -0.495109 0.695955 
-0.988419 -0.252028 -0.438652 -0.990812 -0.0462319 0.127097 
-0.988342 -0.241062 -0.416178 0.877951 -0.295164 -0.376935 
-0.937012 0.00211798 -0.440528 0.627054 0.699143 -0.343515 
-0.939781 0.00244598 -0.410198 0.606405 0.795012 0.015107 
-0.941965 0.00794202 -0.381924 -0.819887 0.477982 0.315148 
-0.918363 -0.254974 -0.905068 0.915917 -0.401267 -0.00897858 
-0.91978 -0.254408 -0.875747 0.794759 -0.584612 -0.163055 
-0.923214 -0.251654 -0.850203 -0.00206416 -0.929478 -0.368872 
-0.928197 -0.252322 -0.822201 0.280653 -0.779818 -0.559569 
-0.928429 -0.252076 -0.791984 -0.769691 -0.434029 -0.468182 
-0.933213 -0.254922 -0.763784 -0.693518 -0.719532 0.0361421 
-0.934505 -0.252464 -0.740426 0.684996 -0.700353 -0.200714 
-0.935691 -0.25625 -0.70898 0.877489 -0.29755 -0.376134 
-0.936946 -0.25437 -0.684356 0.954471 -0.218317 -0.203281 
-0.941393 -0.25204 -0.65411 -0.467133 -0.820854 -0.328611 
-0.942288 -0.255408 -0.626648 -0.719848 -0.600748 -0.347737 
-0.945353 -0.254124 -0.599986 -0.611388 -0.7537 -0.241125 
-0.946911 -0.2549 -0.571622 -0.363297 -0.887836 0.282421 
-0.948937 -0.256302 -0.544536 -0.544967 -0.806654 -0.228737 
-0.951623 -0.256822 -0.520574 -0.936713 -0.349394 0.0221907 
-0.954001 -0.253422 -0.494138 -0.957671 -0.203572 -0.203533 
-0.957685 -0.253644 -0.464726 -0.931526 -0.343336 -0.119912 
-0.960907 -0.254404 -0.439216 -0.300108 -0.822154 0.483733 
-0.96221 -0.252112 -0.412104 -0.150109 -0.128689 -0.980258 
-0.964524 -0.256246 -0.386792 0.193483 0.377385 0.905618 
-0.968187 -0.254136 -0.358126 0.102206 0.175803 -0.979105 
-0.968875 -0.249076 -0.331848 -0.77165 -0.340384 0.537303 
-0.917096 -0.00256598 -0.352624 0.333611 0.663969 0.669215 
-0.916067 -0.00102002 -0.323464 0.0823732 0.800015 0.594298 
-0.891719 -0.252578 -0.933669 -0.730419 -0.62737 -0.269991 
-0.894449 -0.252526 -0.908909 -0.490443 -0.811714 0.317152 
-0.893596 -0.255932 -0.879295 -0.755801 -0.654645 -0.0142999 
-0.896607 -0.254298 -0.851694 0.358106 -0.899479 -0.250394 
-0.897662 -0.25616 -0.822087 -0.859665 -0.503566 -0.0860112 
-0.904414 -0.25445 -0.796768 -0.514051 -0.848881 0.123092 
-0.906123 -0.255324 -0.76544 -0.127657 -0.840687 0.52626 
-0.906137 -0.253382 -0.737516 0.687277 -0.726148 -0.0189439 
-0.910562 -0.25678 -0.713404 0.85643 0.28819 0.428338 
-0.910194 -0.254856 -0.682684 0.731594 -0.445872 0.515721 
-0.913921 -0.25629 -0.657404 0.399014 -0.412025 0.81916 
-0.917339 -0.252192 -0.628178 0.754171 -0.637789 0.156369 
-0.921135 -0.252264 -0.59999 -0.859406 -0.487455 0.154301 
-0.921166 -0.25356 -0.575214 -0.851834 -0.477802 -0.214672 
-0.926272 -0.256272 -0.54751 -0.779623 0.608974 -0.146081 
-0.926226 -0.25435 -0.517916 0.662198 -0.70118 0.264274 
-0.93157 -0.252772 -0.490882 -0.0738319 -0.189442 -0.979112 
-0.930726 -0.256124 -0.465588 -0.189566 -0.979025 0.0746621 
-0.936553 -0.253554 -0.440864 -0.16888 -0.694411 -0.69948 
-0.93775 -0.254706 -0.41298 -0.515791 -0.517925 0.682432 
-0.937544 -0.25623 -0.382606 -0.613132 -0.199831 0.764288 
-0.941919 -0.252072 -0.358642 -0.2182 -0.0125282 -0.975824 
-0.945474 -0.25213 -0.330518 0.186504 -0.829845 0.525903 
-0.945553 -0.254674 -0.30451 0.00220465 -0.753787 0.657116 
-0.947463 -0.2511 -0.278664 -0.788706 0.420888 0.448103 
-0.8952 -0.011604 -0.292938 0.747397 -0.558606 -0.359661 
-0.896508 -0.00993799 -0.263944 0.381267 0.147842 -0.912567 
-0.859552 -0.254482 -0.967864 0.360668 -0.832461 -0.420626 
-0.863288 -0.254518 -0.936508 -0.394523 -0.839692 -0.373188 
-0.866179 -0.254714 -0.909167 -0.282042 -0.475798 0.833108 
-0.866617 -0.25496 -0.880168 0.123138 -0.832203 -0.540624 
-0.869584 -0.2564 -0.854181 0.735347 0.0835026 -0.672526 
-0.872521 -0.255152 -0.822632 0.662823 -0.536765 -0.522062 
-0.874614 -0.256004 -0.796564 0.24785 -0.802223 0.543146 
-0.876611 -0.255536 -0.769524 0.237529 -0.66641 0.706737 
-0.878475 -0.256392 -0.743088 0.420522 -0.558934 -0.714671 
-0.884395 -0.25271 -0.714458 0.178443 -0.091937 -0.979646 
-0.887104 -0.254696 -0.684966 0.0616629 -0.82984 -0.554584 
-0.88845 -0.2551 -0.656264 0.0719412 -0.97757 0.197942 
-0.890022 -0.25513 -0.628924 0.136296 -0.937334 0.32067 
-0.893027 -0.255914 -0.604892 0.0137301 -0.850585 -0.525659 
-0.894984 -0.256596 -0.574002 0.614947 -0.61874 -0.488878 
-0.899388 -0.254096 -0.547856 -0.521925 -0.608113 0.598159 
-0.902112 -0.252454 -0.521606 0.0188153 -0.986963 0.159843 
-0.902177 -0.252144 -0.490978 -0.245267 -0.896496 0.36897 
-0.903927 -0.252218 -0.46455 0.888856 -0.176727 -0.422732 
-0.909718 -0.256844 -0.440648 0.0641812 -0.628367 -0.775265 
-0.910475 -0.252854 -0.412788 0.142921 -0.491404 -0.859125 
-0.914019 -0.256576 -0.386604 0.609868 -0.762704 0.215277 
-0.916613 -0.254128 -0.3567 0.658024 0.74592 -0.102997 
-0.91802 -0.255994 -0.33176 0.224448 0.480722 -0.847661 
-0.920237 -0.255588 -0.305366 0.0678286 -0.348489 0.934855 
-0.920907 -0.251932 -0.278698 0.201983 -0.598181 0.775488 
-0.923357 -0.254682 -0.250956 -0.521707 -0.561402 -0.642378 
-0.868225 -0.019168 -0.26103 0.610386 0.59837 0.519022 
-0.874458 -0.02125 -0.230942 0.0536578 -0.505716 0.86103 
-0.873828 -0.018068 -0.203658 -0.351442 0.717979 0.600829 
-0.834611 -0.255818 -0.967727 -0.404412 -0.877916 0.25635 
-0.836009 -0.255612 -0.938126 0.816667 -0.463532 -0.343792 
-0.902897 -0.492862 -0.813825 0.680521 -0.450171 -0.578133 
-0.909261 -0.498314 -0.781354 -0.57693 -0.702058 -0.417451 
-0.912515 -0.501092 -0.756848 -0.489448 -0.865897 -0.103268 
-0.915129 -0.506236 -0.72993 -0.473987 -0.776639 0.414931 
-0.915565 -0.50428 -0.703042 0.0156359 -0.202541 0.979149 
-0.916339 -0.504392 -0.678952 0.225184 -0.957414 0.180692 
-0.92267 -0.508196 -0.652918 0.00205366 -0.14529 -0.989387 
-0.925097 -0.509612 -0.625068 -0.00208829 -0.997453 0.0712925 
-0.924099 -0.508944 -0.603062 -0.227908 -0.970118 0.0832433 
-0.928871 -0.510902 -0.57518 0.903275 -0.384422 0.190561 
-0.932923 -0.510762 -0.549598 0.515509 -0.368067 0.773807 
-0.936047 -0.51194 -0.527598 0.306758 -0.766071 -0.564832 
-0.936675 -0.511658 -0.50303 -0.0718585 -0.980859 -0.180974 
-0.936689 -0.51212 -0.474866 -0.377713 -0.923858 0.061801 
-0.94085 -0.509852 -0.451494 -0.597136 -0.785541 -0.162342 
-0.942856 -0.500882 -0.427636 -0.956815 0.099767 -0.273042 
-0.87667 -0.253094 -0.464778 0.684886 -0.714052 0.145124 
-0.878221 -0.2539 -0.440478 -0.0564242 -0.898069 0.436221 
-0.882621 -0.254668 -0.41246 -0.380485 -0.0247115 -0.924457 
-0.887275 -0.25394 -0.382608 -0.761656 -0.450621 0.465641 
-0.889068 -0.256856 -0.355268 0.100822 -0.976431 0.190832 
-0.889968 -0.255682 -0.32898 0.705055 -0.691317 0.158044 
-0.891728 -0.255002 -0.302474 0.382065 -0.877313 0.290428 
-0.893125 -0.255242 -0.273886 -0.114528 -0.928759 0.352548 
-0.899958 -0.25222 -0.248082 -0.967563 -0.240427 -0.0775652 
-0.901779 -0.25487 -0.224082 0.59869 -0.350914 0.72002 
-0.902359 -0.25332 -0.195824 0.571572 -0.720078 -0.393437 
-0.847746 -0.027004 -0.198886 -0.0322795 0.192834 0.9807 
-0.851693 -0.028758 -0.16867 -0.351835 0.642979 0.680286 
-0.865043 -0.488476 -0.919707 0.364735 -0.673547 -0.642886 
-0.868291 -0.486196 -0.893359 -0.0020152 -0.335188 -0.942149 
-0.873046 -0.48872 -0.868049 -0.977695 -0.0811311 -0.193725 
-0.872617 -0.491528 -0.840569 -0.979747 0.133441 -0.149294 
-0.877374 -0.489732 -0.812439 0.306378 -0.46727 -0.829332 
-0.877997 -0.495112 -0.785182 -0.417667 -0.899328 -0.129471 
-0.884006 -0.492024 -0.76173 -0.512562 -0.829239 0.222805 
-0.883672 -0.494634 -0.734756 -0.629968 -0.753787 -0.186937 
-0.888872 -0.496966 -0.707682 0.653985 -0.700753 0.285042 
-0.891082 -0.497134 -0.681122 0.710169 -0.592039 0.380986 
-0.895317 -0.497766 -0.658654 0.621436 -0.708865 0.33366 
-0.895428 -0.497538 -0.630818 0.438073 -0.483848 0.757617 
-0.900626 -0.501858 -0.606668 0.993372 0.0958755 0.0634095 
-0.901045 -0.499018 -0.578098 0.985417 -0.126871 0.113394 
-0.904649 -0.50213 -0.553648 0.873501 -0.357029 -0.330946 
-0.905249 -0.503538 -0.52766 -0.179569 -0.863473 -0.471348 
-0.911012 -0.50483 -0.501512 -0.677907 -0.725203 -0.12051 
-0.912139 -0.502338 -0.477946 -0.189411 -0.658256 0.728576 
-0.91404 -0.506056 -0.452512 -0.464305 -0.843902 0.268795 
-0.915737 -0.50826 -0.427832 -0.123374 -0.724611 0.678025 
-0.921571 -0.504832 -0.404236 -0.0272716 0.134974 0.990474 
-0.923888 -0.505226 -0.377242 0.138507 -0.0730319 -0.987665 
-0.921394 -0.506714 -0.351394 0.512941 -0.426889 -0.744753 
-0.924604 -0.495458 -0.332018 0.870984 -0.00205086 -0.491307 
-0.862608 -0.252416 -0.35822 0.354555 -0.933808 -0.0478876 
-0.861209 -0.255226 -0.330692 0.21263 -0.976707 -0.0288367 
-0.865852 -0.256278 -0.304376 0.0801341 -0.921482 0.380064 
-0.86666 -0.252446 -0.274548 0.720248 -0.616664 0.317756 
-0.872522 -0.255384 -0.250316 0.89489 -0.436799 -0.0915385 
-0.871215 -0.256754 -0.219578 0.227102 -0.972792 -0.0458294 
-0.877069 -0.255152 -0.195172 0.934032 -0.194709 0.299455 
-0.87881 -0.253374 -0.16722 0.459776 -0.632302 0.623538 
-0.822659 -0.035758 -0.168024 -0.341554 0.312168 0.886505 
-0.828324 -0.034812 -0.141038 0.122826 0.88506 0.44898 
-0.833724 -0.476968 -0.953264 0.29137 -0.760837 -0.579854 
-0.836812 -0.47798 -0.927813 0.821369 -0.487571 -0.296019 
-0.843326 -0.477704 -0.902365 -0.33292 -0.748497 -0.573513 
-0.844554 -0.479866 -0.871544 -0.540264 -0.798374 -0.26592 
-0.846732 -0.483004 -0.847048 0.973652 0.225996 0.0304712 
-0.850692 -0.479946 -0.821897 0.0566545 -0.627619 0.776456 
-0.852166 -0.481568 -0.794318 0.0422484 -0.916905 -0.396863 
-0.853928 -0.482046 -0.766532 -0.259441 -0.933257 0.248438 
-0.855155 -0.483536 -0.742668 -0.541212 -0.840375 -0.0293131 
-0.861021 -0.484486 -0.712532 0.826052 -0.561356 -0.0501786 
-0.860799 -0.486028 -0.69085 0.490146 -0.727997 -0.479352 
-0.866869 -0.48699 -0.660108 0.232139 -0.451712 -0.861433 
-0.8658 -0.489456 -0.6387 0.941842 -0.302212 0.146972 
-0.87028 -0.490208 -0.608652 -0.875237 -0.369034 0.312689 
-0.875427 -0.488328 -0.584186 0.995463 0.0801506 0.05128 
-0.877329 -0.492474 -0.560764 -0.406972 -0.884817 -0.226876 
-0.878745 -0.492654 -0.533278 0.736944 -0.160564 -0.656607 
-0.881567 -0.491292 -0.507274 0.783589 -0.529871 -0.324384 
-0.882178 -0.49388 -0.482018 0.118807 -0.0733276 -0.990206 
-0.887552 -0.494316 -0.458432 0.224793 -0.748697 0.623635 
-0.889808 -0.495952 -0.43223 0.542055 -0.272984 -0.794768 
-0.892241 -0.497304 -0.40475 0.212265 -0.105489 0.971502 
-0.895618 -0.500508 -0.380406 0.128847 -0.672123 0.729142 
-0.895655 -0.498558 -0.35738 -0.0441557 -0.487454 -0.872031 
-0.900635 -0.502194 -0.331164 -0.14952 -0.488261 0.859794 
-0.900293 -0.502646 -0.306492 0.0155758 -0.911667 0.410636 
-0.904513 -0.498658 -0.280598 0.961055 -0.0865425 -0.262457 
-0.838238 -0.256542 -0.304028 -0.183732 -0.954931 0.233131 
-0.839232 -0.256094 -0.274512 0.926592 -0.162191 0.339295 
-0.841872 -0.255604 -0.245896 0.581662 -0.639031 -0.503297 
-0.844651 -0.253236 -0.218134 0.765375 -0.642892 -0.0298549 
-0.846803 -0.253224 -0.194862 0.950322 -0.224177 0.215946 
-0.853527 -0.256632 -0.167196 -0.906596 -0.399792 -0.13509 
-0.855023 -0.255136 -0.139168 -0.547815 -0.835971 -0.0324292 
-0.801486 -0.047196 -0.135572 0.147485 0.833427 0.532586 
-0.804747 -0.046872 -0.105098 -0.748186 -0.250628 0.614332 
-0.806872 -0.465934 -0.963912 0.796036 -0.514183 -0.319285 
-0.808529 -0.4676 -0.936256 0.55244 -0.699597 0.453182 
-0.81315 -0.470346 -0.906424 0.162034 -0.730366 0.663559 
-0.815102 -0.469248 -0.879338 -0.164446 -0.952948 0.25465 
-0.817326 -0.471864 -0.851762 -0.0242613 -0.965092 -0.260784 
-0.819349 -0.472634 -0.824247 0.432706 -0.899378 -0.0623238 
-0.820384 -0.47351 -0.80205 -0.575271 -0.617751 0.536141 
-0.825935 -0.471608 -0.77503 0.30645 -0.801833 0.512984 
-0.826364 -0.47204 -0.74918 0.0590906 -0.981857 0.180182 
-0.831897 -0.475308 -0.721254 0.36151 -0.872842 0.327806 
-0.835169 -0.476198 -0.69387 -0.572729 -0.242391 0.783089 
-0.834552 -0.476586 -0.667644 -0.116125 -0.985763 0.121601 
-0.841034 -0.478624 -0.640052 0.802492 -0.592994 0.0660741 
-0.84363 -0.477348 -0.61737 -0.0213099 -0.878771 0.476767 
-0.84694 -0.479212 -0.588904 0.704376 -0.457723 -0.542536 
-0.849537 -0.480974 -0.564196 -0.326608 -0.9409 0.089639 
-0.848188 -0.481476 -0.539188 -0.359401 -0.905939 -0.223841 
-0.851616 -0.484182 -0.51135 -0.272523 -0.629884 0.727308 
-0.855319 -0.48544 -0.483076 0.18038 -0.237347 -0.954531 
-0.858415 -0.483032 -0.457858 0.372778 -0.592337 -0.714264 
-0.859732 -0.488054 -0.43414 -0.194692 -0.927087 -0.320321 
-0.864204 -0.485478 -0.410052 -0.0356627 -0.736645 0.675339 
-0.866966 -0.489784 -0.382038 0.194621 0.232305 0.952973 
-0.868188 -0.490468 -0.358966 0.452234 -0.873502 0.180219 
-0.871135 -0.488528 -0.33009 0.330363 -0.816761 -0.473035 
-0.875854 -0.490706 -0.306264 -0.120847 -0.992605 -0.0114912 
-0.875494 -0.494146 -0.28044 -0.422808 -0.882179 -0.207347 
-0.879145 -0.493708 -0.254534 0.135841 -0.975609 0.172437 
-0.881892 -0.493018 -0.23367 0.988255 0.150299 -0.0276 
-0.816934 -0.25522 -0.2446 -0.0682679 -0.205106 0.976356 
-0.82161 -0.252928 -0.216756 -0.0799094 -0.924906 0.371703 
-0.8242 -0.25446 -0.190636 -0.336945 -0.885289 0.320518 
-0.826573 -0.255704 -0.164672 -0.251312 -0.965952 -0.0614727 
-0.826723 -0.255636 -0.135364 0.765125 -0.629392 0.135832 
-0.830871 -0.254332 -0.113174 -0.809034 -0.571131 0.138831 
-0.775018 -0.05361 -0.103246 0.588533 0.280253 0.758345 
-0.780348 -0.053184 -0.077954 0.884026 0.192068 -0.426154 
-0.773402 -0.455202 -0.970797 0.991442 0.00679885 -0.130373 
-0.780124 -0.455306 -0.943051 -0.0135853 -0.59945 -0.800297 
-0.783466 -0.455606 -0.915698 -0.0749095 -0.993092 -0.0903176 
-0.782974 -0.458748 -0.889749 -0.937133 -0.182406 -0.297505 
-0.789952 -0.45823 -0.858958 0.854819 -0.492783 0.162631 
-0.790178 -0.462646 -0.834701 0.64685 -0.747412 0.151527 
-0.79567 -0.463014 -0.805265 0.286252 -0.933324 -0.216718 
-0.796672 -0.460912 -0.778948 0.174889 -0.73698 0.652897 
-0.7984 -0.461302 -0.75061 0.057386 -0.465679 0.883091 
-0.79997 -0.462984 -0.725548 0.935394 0.124104 0.331114 
-0.803518 -0.46454 -0.70011 0.737362 -0.663647 -0.125977 
-0.807007 -0.465648 -0.674346 -0.381394 -0.442841 0.811437 
-0.809488 -0.465302 -0.64526 0.05255 -0.866794 0.49589 
-0.812968 -0.468362 -0.619914 0.930875 -0.35664 0.0792477 
-0.817621 -0.46953 -0.590906 0.0348398 -0.928228 -0.370377 
-0.819976 -0.468854 -0.56908 0.362234 -0.714426 0.59865 
-0.820588 -0.473212 -0.540124 -0.323763 -0.83985 0.435694 
-0.826359 -0.472436 -0.512558 0.0859398 -0.0972106 0.991547 
-0.826126 -0.472704 -0.487336 0.312354 -0.696735 -0.645752 
-0.829242 -0.476078 -0.462066 0.0649198 -0.977135 -0.202466 
-0.830537 -0.47637 -0.43756 0.0898383 -0.991993 0.0887591 
-0.835946 -0.475688 -0.412614 0.255145 -0.669291 0.697818 
-0.838334 -0.477578 -0.387444 0.814916 -0.566925 -0.120447 
-0.84251 -0.47826 -0.361096 0.727953 -0.662256 0.177488 
-0.842523 -0.48082 -0.335884 0.177322 -0.906558 0.383027 
-0.844208 -0.48159 -0.305922 -0.0393558 -0.988522 -0.145864 
-0.846946 -0.481252 -0.28484 -0.457643 -0.876817 0.147493 
-0.851436 -0.483458 -0.259072 0.580092 -0.7436 -0.332494 
-0.855192 -0.484672 -0.23324 0.774136 -0.320107 -0.546118 
-0.856422 -0.483014 -0.205206 -0.332513 -0.834048 0.440227 
-0.856 -0.477344 -0.185302 -0.551149 -0.745061 0.375658 
-0.796404 -0.25609 -0.192434 -0.54236 -0.718844 0.434867 
-0.799178 -0.252924 -0.161332 -0.134402 -0.929563 -0.343291 
-0.79773 -0.256758 -0.137914 0.210443 -0.946151 -0.245992 
-0.80104 -0.25451 -0.107422 -0.220053 -0.946827 -0.234725 
-0.802866 -0.2544 -0.083844 -0.755881 -0.60467 -0.251036 
-0.754968 -0.062798 -0.073042 0.636783 0.546351 -0.544067 
-0.745342 -0.444014 -0.976622 0.164026 -0.974673 0.152014 
-0.747884 -0.443154 -0.950765 -0.183245 -0.974924 -0.126275 
-0.751636 -0.444458 -0.921615 -0.0828652 -0.98093 -0.175809 
-0.75261 -0.446182 -0.894893 0.311111 -0.748881 0.585138 
-0.755588 -0.45063 -0.868104 0.0854282 -0.00795143 0.996313 
-0.758288 -0.447128 -0.842477 0.51594 -0.656617 -0.550145 
-0.761444 -0.451614 -0.811044 -0.168764 -0.950518 0.260835 
-0.764206 -0.44914 -0.783716 -0.00831863 -0.995966 0.0893418 
-0.766942 -0.452408 -0.759034 0.444667 -0.89446 -0.0470416 
-0.773524 -0.455166 -0.732336 0.0065993 -0.989266 -0.145977 
-0.775388 -0.454946 -0.70644 -0.374185 -0.926254 -0.0451638 
-0.779128 -0.454336 -0.67852 -0.768019 -0.589183 -0.251016 
-0.781038 -0.456096 -0.651508 0.0627638 -0.997965 -0.0112431 
-0.545342 0.280498 -0.870811 -0.968429 -0.200884 0.147618 
-0.547382 0.287892 -0.840178 -0.866893 -0.498224 0.0164482 
-0.79002 -0.460586 -0.569296 0.384806 -0.920409 -0.0690833 
-0.79018 -0.461168 -0.547384 0.686647 -0.689743 0.229716 
-0.795374 -0.462838 -0.51648 -0.145161 -0.783621 0.604042 
-0.797942 -0.461644 -0.490662 0.963144 -0.264269 -0.0501601 
-0.798832 -0.463594 -0.466864 0.671121 -0.739921 -0.0459641 
-0.804442 -0.46319 -0.441376 0.369667 -0.912111 0.177202 
-0.80774 -0.463542 -0.413588 0.330941 -0.908548 0.254987 
-0.807342 -0.469132 -0.389172 0.999068 -0.0103181 -0.0419138 
-0.812652 -0.467274 -0.361796 0.923273 -0.384129 0.00329979 
-0.813083 -0.470514 -0.33594 0.623272 -0.747698 0.229086 
-0.818094 -0.468092 -0.312572 0.33437 -0.911781 0.238438 
-0.820159 -0.470292 -0.283182 -0.899285 0.0962997 0.42663 
-0.824385 -0.471098 -0.26 0.879959 -0.397086 0.260759 
-0.82479 -0.475158 -0.23384 0.744475 -0.559114 -0.364895 
-0.825742 -0.47575 -0.207856 0.64722 -0.648488 -0.400712 
-0.830672 -0.476616 -0.181542 0.502508 -0.796569 0.336102 
-0.833746 -0.47464 -0.159094 0.235064 -0.971284 0.0367624 
-0.767478 -0.255422 -0.1607 -0.614592 -0.780305 0.11576 
-0.77358 -0.2526 -0.135204 -0.497532 -0.838349 -0.222785 
-0.776634 -0.252078 -0.109706 0.0128932 -0.557778 -0.82989 
-0.777096 -0.256224 -0.07945 -0.246241 0.459189 -0.853528 
-0.781514 -0.251784 -0.05515 -0.274384 0.877221 0.393951 
-0.72701 -0.072772 -0.041132 0.00323683 0.0734813 -0.997291 
-0.71628 -0.433382 -0.960761 -0.106618 -0.991064 -0.0801566 
-0.718984 -0.435734 -0.931755 0.151683 -0.971075 -0.184408 
-0.720576 -0.432552 -0.901144 0.257463 -0.922206 -0.28853 
-0.726576 -0.434536 -0.875311 0.688556 -0.680087 0.251738 
-0.519584 0.235386 -0.960855 -0.723321 0.673699 -0.151445 
-0.518674 0.238616 -0.9256 -0.583556 0.504665 -0.63622 
-0.52162 0.238728 -0.892024 -0.290791 -0.934575 0.204962 
-0.780086 -0.527878 -0.603368 0.474699 0.303267 -0.826251 
-0.526696 0.249062 -0.828961 -0.141878 -0.989857 0.00737912 
-0.526442 0.251924 -0.793886 -0.968509 -0.137772 0.207388 
-0.529236 0.255362 -0.7625 -0.135115 -0.988998 0.0602189 
-0.53224 0.25767 -0.73137 -0.990447 -0.078325 0.113489 
-0.533524 0.26365 -0.695612 -0.60943 -0.774093 0.17139 
-0.537736 0.269228 -0.666938 -0.667301 0.697525 -0.261091 
-0.54088 0.272078 -0.632192 -0.839683 0.537418 -0.0781978 
-0.538744 0.275902 -0.597266 -0.718862 0.669331 0.187706 
-0.541946 0.277242 -0.568456 -0.0959442 -0.969221 0.226728 
-0.780548 -0.457498 -0.36537 -0.2686 -0.961696 0.0547245 
-0.782486 -0.457002 -0.33815 0.0467566 -0.99865 -0.0226285 
-0.789534 -0.46124 -0.31004 -0.147158 -0.98728 0.060181 
-0.791848 -0.460698 -0.287938 -0.525107 -0.844942 -0.101664 
-0.79566 -0.459884 -0.261134 -0.193003 -0.549716 0.81275 
-0.794846 -0.464366 -0.23522 0.198299 -0.27197 -0.941653 
-0.799934 -0.461716 -0.208164 0.366958 -0.643391 0.671855 
-0.799452 -0.465354 -0.18251 0.270179 -0.357683 0.893905 
-0.804471 -0.463534 -0.15588 0.48636 -0.578303 0.654996 
-0.808626 -0.465298 -0.133774 -0.203672 -0.942433 0.265214 
-0.804439 -0.456154 -0.1089 -0.241092 -0.658011 0.713369 
-0.746086 -0.254644 -0.106302 0.00532782 -0.845057 0.534649 
-0.747898 -0.252698 -0.077056 -0.107143 0.415429 -0.903293 
-0.75275 -0.25387 -0.051048 -0.539527 -0.225922 -0.811092 
-0.755332 -0.255094 -0.023604 -0.427291 0.0326214 0.903526 
-0.704536 -0.08071 -0.00785999 -0.0183772 0.413334 -0.910394 
-0.497822 0.19672 -0.950369 -0.822309 -0.535001 -0.19386 
-0.49564 0.206678 -0.915066 -0.645613 0.547603 -0.532273 
-0.49629 0.217672 -0.890162 -0.940308 0.290045 -0.178031 
-0.761766 -0.55105 -0.595662 0.372923 0.266715 -0.888702 
-0.498798 0.300736 -0.606594 -0.194863 0.594012 -0.780498 
-0.765704 -0.449738 -0.262544 0.594666 -0.79718 0.104293 
-0.768292 -0.449808 -0.235378 0.469019 -0.72773 -0.50043 
-0.76912 -0.455192 -0.210432 0.625023 -0.774187 0.0999014 
-0.773682 -0.45636 -0.186324 0.695434 -0.664324 -0.273944 
-0.775026 -0.454202 -0.157202 0.485229 -0.427456 0.762781 
-0.775546 -0.453794 -0.132944 0.336258 -0.613584 -0.714454 
-0.782496 -0.454342 -0.105326 -0.938763 -0.242782 -0.2445 
-0.779198 -0.452216 -0.081884 -0.541562 -0.771128 0.334771 
-0.720076 -0.253858 -0.077794 0.109633 -0.106309 -0.988271 
-0.723158 -0.25616 -0.048656 0.0972328 -0.674666 0.731691 
-0.726722 -0.256078 -0.020438 0.362616 -0.879445 0.308362 
-0.679528 -0.093444 -0.00938397 -0.277757 0.890775 -0.359682 
-0.678096 -0.08717 0.019132 -0.406292 0.255769 0.877216 
-0.748336 -0.68785 -0.918589 0.905112 -0.309601 0.29141 
-0.751336 -0.69858 -0.891382 0.957142 -0.273497 0.095281 
-0.76036 -0.704106 -0.860954 0.839344 -0.430723 0.331632 
-0.763876 -0.705264 -0.832896 -0.167883 -0.163652 -0.972128 
-0.76497 -0.7081 -0.810959 -0.717711 0.403045 0.567843 
-0.76758 -0.71524 -0.783212 0.153593 -0.122231 0.980545 
-0.773226 -0.715108 -0.757858 0.317052 -0.282036 -0.905502 
-0.776104 -0.718456 -0.73105 0.290818 -0.881968 -0.370889 
-0.781814 -0.720726 -0.706484 0.901529 -0.429969 -0.0487054 
-0.781542 -0.72384 -0.678494 0.991437 0.0210367 0.128881 
-0.787588 -0.726828 -0.653904 0.469463 -0.546322 0.69364 
-0.78922 -0.730382 -0.628192 0.445128 -0.679535 0.583175 
-0.793066 -0.735262 -0.605672 0.499289 -0.29282 -0.815455 
-0.797348 -0.73827 -0.581744 0.637435 -0.320365 -0.700744 
-0.800451 -0.740558 -0.555752 0.992251 -0.112868 -0.0519534 
-0.804003 -0.740308 -0.530616 0.824354 -0.32727 -0.461882 
-0.80305 -0.73857 -0.508108 -0.231121 0.97068 0.0660497 
-0.807132 -0.737716 -0.483432 0.579673 0.729288 0.363482 
-0.808347 -0.737994 -0.46298 0.429091 -0.890203 -0.153036 
-0.810729 -0.73097 -0.441956 0.553424 0.831712 -0.0444765 
-0.740408 -0.438522 -0.209542 0.400692 -0.914384 -0.0578665 
-0.742574 -0.440592 -0.185114 0.745094 -0.665121 0.0494859 
-0.74362 -0.444148 -0.1572 0.182726 -0.806913 -0.561697 
-0.746836 -0.442882 -0.13255 0.0614821 -0.892952 -0.445934 
-0.749014 -0.444276 -0.109242 0.0178217 -0.920609 -0.390079 
-0.755128 -0.446542 -0.081448 -0.561254 -0.803365 -0.198996 
-0.756126 -0.44576 -0.056904 -0.426808 -0.793986 0.432921 
-0.697576 -0.256546 -0.046292 0.116063 -0.627926 0.76957 
-0.699096 -0.254616 -0.023266 0.250048 -0.953334 0.169203 
-0.699486 -0.25363 0.00558197 0.172835 -0.740886 0.649012 
-0.65275 -0.102244 0.02459 0.461704 0.67151 -0.579572 
-0.712492 -0.665552 -0.957548 0.433482 -0.861364 0.264849 
-0.712676 -0.670852 -0.931446 0.519389 -0.816457 0.252255 
-0.719422 -0.673522 -0.903138 0.498174 -0.842508 0.204946 
-0.720448 -0.673498 -0.87995 0.791636 -0.387246 0.472603 
-0.7243 -0.678588 -0.851641 0.762166 -0.592429 -0.261019 
-0.731066 -0.682606 -0.826405 0.97309 0.229551 -0.0200794 
-0.735134 -0.68555 -0.795856 0.256208 -0.956521 0.139376 
-0.737 -0.6852 -0.770994 0.902407 0.00702418 0.430827 
-0.74201 -0.692232 -0.743964 0.764617 -0.631912 0.126683 
-0.746428 -0.695394 -0.718508 0.0908247 -0.987481 0.128969 
-0.750106 -0.697086 -0.696176 -0.818478 -0.394155 0.418014 
-0.752668 -0.698346 -0.666348 -0.304063 0.0870801 0.948664 
-0.754052 -0.703882 -0.6408 0.664921 -0.456078 0.591501 
-0.759462 -0.705976 -0.616234 0.33797 -0.830322 -0.443106 
-0.761052 -0.70905 -0.591598 0.591804 -0.777015 0.214512 
-0.766584 -0.712456 -0.567844 -0.262026 -0.964906 0.0172559 
-0.768672 -0.715446 -0.540984 0.967782 -0.144404 0.206266 
-0.772294 -0.718514 -0.514824 0.627017 -0.776476 -0.0627174 
-0.77492 -0.718608 -0.490216 0.171936 -0.773702 -0.609774 
-0.77689 -0.722436 -0.465952 0.103058 -0.200968 -0.974162 
-0.781418 -0.724494 -0.44106 -0.215016 -0.800513 -0.559417 
-0.784312 -0.72787 -0.417136 0.506457 -0.72699 0.463667 
-0.78731 -0.72901 -0.39579 0.514665 -0.807154 -0.289175 
-0.790012 -0.733054 -0.372598 0.020676 -0.957937 -0.286232 
-0.79188 -0.725874 -0.346448 0.0560221 -0.986435 -0.154294 
-0.7944 -0.719718 -0.32729 -0.279251 -0.94158 0.188273 
-0.373002 0.47976 -0.580284 0.989559 -0.124928 -0.0718714 
-0.372794 0.48831 -0.54404 0.649794 0.691462 -0.315671 
-0.372548 0.497276 -0.509932 -0.133948 -0.0760761 0.988064 
-0.373982 0.500934 -0.47672 0.816139 -0.519441 -0.253175 
-0.712146 -0.429838 -0.161018 0.940725 -0.33737 -0.0349086 
-0.715894 -0.434658 -0.130846 0.794644 -0.597933 0.10496 
-0.719812 -0.436304 -0.105494 -0.643802 -0.76517 0.00587687 
-0.722538 -0.43813 -0.079274 0.760617 -0.649138 -0.0090185 
-0.724422 -0.439412 -0.05317 0.622334 -0.774449 -0.113712 
-0.72688 -0.435646 -0.031864 -0.587203 -0.0698214 0.806422 
-0.668444 -0.25378 -0.01867 0.186156 0.270729 -0.944485 
-0.674916 -0.255882 0.009008 0.450978 -0.660167 -0.600665 
-0.674676 -0.251486 0.0368521 0.0474606 -0.631445 0.773967 
-0.626906 -0.106288 0.056574 0.0582792 -0.249153 0.966709 
-0.673104 -0.629212 -0.977772 0.653211 -0.727795 -0.208877 
-0.67726 -0.638246 -0.949792 0.862226 -0.50381 0.0523698 
-0.682518 -0.638948 -0.92511 0.80498 -0.532739 0.261145 
-0.6854 -0.642764 -0.897829 0.819961 -0.442359 -0.363294 
-0.687684 -0.644546 -0.867303 0.846017 -0.478956 0.234214 
-0.690196 -0.65201 -0.840635 0.729801 -0.682473 0.0402658 
-0.695572 -0.652876 -0.814152 0.886455 -0.460175 -0.0493735 
-0.700846 -0.655116 -0.788846 0.856071 -0.453843 0.247322 
-0.701288 -0.658148 -0.76061 0.475114 -0.849004 -0.231212 
-0.708746 -0.661948 -0.734674 0.873307 -0.227804 -0.430628 
-0.711424 -0.663352 -0.706436 0.149208 -0.974023 0.17034 
-0.712952 -0.667974 -0.681428 0.53802 -0.842823 0.0135569 
-0.718222 -0.670896 -0.654768 0.481321 -0.874579 -0.0586614 
-0.721236 -0.673224 -0.631242 0.621965 -0.778169 -0.087251 
-0.726744 -0.67761 -0.606558 0.819106 -0.569287 0.0705472 
-0.730742 -0.682398 -0.579104 0.994424 0.0556321 -0.0895844 
-0.731134 -0.683036 -0.55493 0.902428 -0.428962 0.0401858 
