ply
format ascii 1.0
comment VCGLIB generated
element vertex 794
property float x
property float y
property float z
property float nx
property float ny
property float nz
element face 0
property list uchar int vertex_indices
end_header
0.8396 0.143055 -0.686471 0.129994 -0.104568 -0.985985 
0.842653 0.155377 -0.687304 0.177581 -0.0570828 -0.982449 
0.845928 0.168364 -0.687748 0.166232 -0.0766059 -0.983107 
0.849258 0.181185 -0.688026 0.11413 -0.0369287 -0.992779 
0.852532 0.193839 -0.688192 0.129061 -0.0507201 -0.990339 
0.855751 0.206383 -0.688192 0.126914 -0.0421505 -0.991018 
0.85897 0.21876 -0.688137 0.13054 -0.011059 -0.991381 
0.861801 0.228972 -0.687082 0.100291 0.306397 -0.946606 
0.731816 -0.096989 -0.865742 -0.586058 0.548478 -0.596413 
0.735202 -0.0911613 -0.855474 -0.344482 0.888231 -0.303939 
0.741696 -0.0843347 -0.828778 -0.134538 0.979347 -0.150925 
0.74497 -0.0807826 -0.815346 -0.0707385 0.986027 -0.15082 
0.747912 -0.0778965 -0.802581 -0.097633 0.976165 -0.193827 
0.750798 -0.0759539 -0.789649 -0.128595 0.982512 -0.13466 
0.752796 -0.0746219 -0.780547 -0.0820131 0.978016 -0.191726 
0.77816 -0.0515887 -0.674816 0.171851 -0.0567201 -0.983489 
0.781823 -0.0380463 -0.674539 0.146887 -0.170157 -0.974408 
0.785153 -0.0248924 -0.675704 0.262118 -0.22318 -0.938874 
0.788372 -0.0117941 -0.677092 0.249337 -0.139625 -0.958298 
0.791592 0.0010268 -0.678146 0.210084 -0.136098 -0.968164 
0.794755 0.0137367 -0.679312 0.149019 -0.122076 -0.98127 
0.797863 0.026169 -0.680089 0.259053 -0.125642 -0.957656 
0.801027 0.0384904 -0.680977 0.239043 -0.0806668 -0.967652 
0.804135 0.0507007 -0.681865 0.243267 -0.100934 -0.964693 
0.807187 0.0627446 -0.682642 0.176193 -0.121944 -0.976773 
0.81024 0.0747329 -0.68353 0.150485 -0.145698 -0.977817 
0.813293 0.0865548 -0.684251 0.195841 -0.113013 -0.974102 
0.816179 0.0983211 -0.685195 0.194654 -0.0742056 -0.978061 
0.819176 0.109921 -0.685861 0.186883 -0.0798581 -0.979131 
0.822117 0.121465 -0.686638 0.154427 -0.0185328 -0.98783 
0.825003 0.132788 -0.687193 0.169354 -0.0768369 -0.982556 
0.82789 0.144165 -0.68797 0.125273 -0.0917493 -0.987871 
0.831053 0.156265 -0.688525 -0.0160121 -0.0221394 -0.999627 
0.834439 0.169141 -0.688803 -0.0228773 0.00835096 -0.999703 
0.837824 0.181851 -0.689025 -0.0284777 -0.0341373 -0.999011 
0.841154 0.19445 -0.689247 -0.0545831 -0.00793892 -0.998478 
0.844429 0.206882 -0.689302 -0.0322269 0.0394492 -0.998702 
0.847704 0.219093 -0.689025 -0.0604527 0.0949667 -0.993643 
0.850423 0.228306 -0.687748 -0.145469 0.330114 -0.932665 
0.720549 -0.095213 -0.856972 -0.418966 0.614962 -0.668049 
0.724823 -0.0882198 -0.84343 -0.102853 0.951653 -0.289443 
0.728209 -0.0838351 -0.830942 0.0547617 0.956361 -0.287009 
0.731317 -0.0805605 -0.817733 0.034165 0.981092 -0.190505 
0.734536 -0.0775635 -0.803635 -0.0399082 0.983335 -0.177366 
0.737533 -0.0761204 -0.788317 -0.0691618 0.993726 -0.0878904 
0.742362 -0.0735673 -0.765117 -0.100128 0.982861 -0.154787 
0.749299 -0.0709588 -0.729929 -0.0175573 0.973767 -0.22687 
0.755016 -0.0657416 -0.706008 0.112989 0.855426 -0.505449 
0.760955 -0.0568059 -0.686471 0.209499 0.776788 -0.593895 
0.765117 -0.0477591 -0.67687 0.318475 0.217299 -0.922689 
0.769113 -0.0328292 -0.677536 0.183956 -0.13438 -0.973705 
0.772776 -0.0188428 -0.678646 0.155766 -0.150086 -0.976325 
0.776107 -0.0059664 -0.679811 0.127544 -0.0522921 -0.990454 
0.779603 0.00763149 -0.680699 0.10314 -0.12686 -0.986544 
0.783377 0.0221174 -0.681698 0.147521 -0.0769834 -0.986058 
0.787096 0.0364368 -0.682753 0.124349 -0.118974 -0.98508 
0.790815 0.0505342 -0.683641 0.145914 -0.0659566 -0.987096 
0.794533 0.0645206 -0.684584 0.132178 -0.0959536 -0.986571 
0.798085 0.078396 -0.685583 0.122711 -0.0619602 -0.990506 
0.801693 0.0920494 -0.686416 0.0616088 -0.0412879 -0.997246 
0.805189 0.105592 -0.68736 0.17549 -0.131973 -0.975595 
0.808686 0.118912 -0.688081 0.0957243 -0.0957279 -0.990794 
0.812183 0.132122 -0.688858 0.112664 -0.0862051 -0.989887 
0.815735 0.145164 -0.689413 0.146816 -0.0938953 -0.984697 
0.819176 0.158096 -0.689968 0.110058 -0.110782 -0.987732 
0.822672 0.170917 -0.690357 0.114225 -0.102248 -0.988179 
0.826114 0.183572 -0.690579 0.0736283 -0.0292355 -0.996857 
0.829499 0.195948 -0.690412 -0.0151618 0.0133641 -0.999796 
0.832885 0.207992 -0.68958 -0.0186721 0.0306569 -0.999356 
0.83516 0.215374 -0.688081 -0.10663 0.127882 -0.986041 
0.708006 -0.0948245 -0.848869 -0.307696 0.637602 -0.706249 
0.712557 -0.0868877 -0.835049 -0.178084 0.902661 -0.391777 
0.715499 -0.0821146 -0.825947 -0.119726 0.970219 -0.210572 
0.718107 -0.080061 -0.813626 -0.0418961 0.995657 -0.0831356 
0.723325 -0.0775635 -0.786041 -0.0572151 0.984907 -0.163355 
0.725267 -0.0756209 -0.777883 0.469673 0.368237 0.802377 
0.728542 -0.0740669 -0.761343 -0.0942093 0.993242 -0.067791 
0.733925 -0.0724573 -0.732205 -0.0763196 0.945387 -0.316889 
0.738532 -0.0679617 -0.712835 0.0695172 0.961534 -0.265743 
0.746746 -0.0546413 -0.687859 0.103429 0.761737 -0.639577 
0.750409 -0.0465381 -0.679589 0.223064 0.0686156 -0.972386 
0.754461 -0.0318301 -0.680144 0.111006 -0.152758 -0.98201 
0.758513 -0.0169002 -0.68131 0.205805 -0.0341179 -0.977998 
0.762453 -0.00213679 -0.68242 0.179386 -0.158366 -0.970948 
0.766338 0.0124046 -0.683474 0.121818 -0.162537 -0.979154 
0.770168 0.026724 -0.684473 0.157177 -0.13112 -0.978827 
0.773942 0.0408214 -0.685306 0.175597 -0.111665 -0.978109 
0.777716 0.0547523 -0.686138 0.18001 -0.0765965 -0.980678 
0.781435 0.0685722 -0.687082 0.160914 -0.138642 -0.977182 
0.785098 0.0822811 -0.688026 0.166363 -0.101487 -0.980828 
0.788761 0.095768 -0.688803 0.109416 -0.0283201 -0.993593 
0.792369 0.109144 -0.689635 0.07327 -0.144184 -0.986835 
0.795976 0.122298 -0.69019 0.144123 -0.0789494 -0.986405 
0.799584 0.135396 -0.690745 0.114305 -0.0725114 -0.990796 
0.803191 0.148273 -0.691189 0.0891329 -0.077775 -0.992979 
0.806743 0.161093 -0.691578 0.0964264 -0.0120505 -0.995267 
0.810296 0.173637 -0.691578 0.0049925 0.0163717 -0.999854 
0.814125 0.186513 -0.690357 -0.123621 0.119775 -0.985075 
0.694464 -0.095102 -0.844096 -0.387784 0.530898 -0.753506 
0.699181 -0.0866102 -0.83011 -0.208674 0.91698 -0.340003 
0.702733 -0.0829471 -0.814791 -0.223364 0.965406 -0.134537 
0.706008 -0.0800055 -0.799084 0.00768265 0.98946 -0.1446 
0.709172 -0.0781185 -0.782878 -0.0379877 0.979655 -0.197061 
0.711947 -0.0759539 -0.770112 0.00186688 0.991507 -0.130038 
0.714333 -0.0628555 -0.779437 -0.109551 0.988844 -0.100927 
0.722992 -0.0680172 -0.716387 0.0889957 0.90857 -0.408142 
0.731761 -0.0531983 -0.690634 0.107305 0.717203 -0.688554 
0.735812 -0.043874 -0.682364 0.244805 0.00294798 -0.969568 
0.740253 -0.0282225 -0.682975 0.163544 -0.166976 -0.972303 
0.74436 -0.0134591 -0.684085 0.146942 -0.184414 -0.971802 
0.748356 0.0011378 -0.685084 0.093298 -0.0596977 -0.993847 
0.752296 0.0155682 -0.686138 0.119051 -0.0698551 -0.990428 
0.756182 0.0297766 -0.687193 0.220097 0.0106804 -0.975419 
0.760067 0.0437075 -0.68797 0.136477 -0.0680033 -0.988306 
0.763896 0.0575274 -0.688803 0.150407 -0.155423 -0.976331 
0.76767 0.0711808 -0.689635 0.144761 -0.0126688 -0.989386 
0.771444 0.0846677 -0.690301 0.137011 -0.0338987 -0.989989 
0.775163 0.0979881 -0.690967 0.0620714 0.00427076 -0.998063 
0.779159 0.112085 -0.691522 0.154047 -0.0396961 -0.987266 
0.7831 0.126072 -0.692077 -0.0411393 -0.0478676 -0.998006 
0.78704 0.139781 -0.69241 0.0159973 0.0218952 -0.999632 
0.791259 0.1541 -0.692022 -0.0631609 0.0163773 -0.997869 
0.794478 0.164368 -0.690745 -0.0471711 0.142614 -0.988654 
0.680866 -0.0977105 -0.839156 -0.26178 0.284442 -0.92226 
0.685361 -0.0904953 -0.823727 -0.276479 0.895668 -0.348337 
0.692743 -0.080727 -0.794644 -0.0754534 0.982414 -0.17079 
0.697849 -0.0755099 -0.771833 0.0840041 0.980048 -0.180136 
0.700846 -0.0715693 -0.760566 0.0975673 0.991635 -0.0845056 
0.704066 -0.0413764 -0.797974 0.401058 0.162349 -0.901551 
0.710115 -0.0651311 -0.713945 0.109328 0.802941 -0.585946 
0.71844 -0.0506452 -0.689136 0.147889 0.6336 -0.759394 
0.722326 -0.0400999 -0.684251 0.193166 -0.00455671 -0.981156 
0.726599 -0.0254475 -0.685139 0.0338367 -0.155097 -0.98732 
0.730651 -0.0108505 -0.686083 -0.0344187 -0.0705827 -0.996912 
0.734702 0.00363537 -0.687082 0.14577 0.00590711 -0.989301 
0.738754 0.0178993 -0.688081 0.0769477 -0.164042 -0.983448 
0.742695 0.0319412 -0.688969 0.0829319 -0.14688 -0.985672 
0.746635 0.0457611 -0.689691 0.00733716 -0.0932972 -0.995611 
0.75052 0.0594145 -0.690412 0.103105 -0.222702 -0.969419 
0.75435 0.0729014 -0.691078 0.124751 -0.0320721 -0.99167 
0.75818 0.0862217 -0.691578 0.0216913 -0.143334 -0.989437 
0.762009 0.0993756 -0.692077 -0.124698 -0.0701344 -0.989713 
0.765783 0.112418 -0.692577 0.0467159 0.0158135 -0.998783 
0.769835 0.126016 -0.692355 -0.0806733 0.115836 -0.989987 
0.773665 0.138005 -0.690634 -0.158182 0.0759339 -0.984486 
0.668989 -0.0980436 -0.832607 -0.479328 -0.154866 -0.863864 
0.693687 -0.0697377 -0.725323 0.186575 0.675612 -0.713259 
0.698071 -0.0609685 -0.713667 0.289979 0.740246 -0.606587 
0.705342 -0.0485361 -0.690745 0.215651 0.47994 -0.850384 
0.709116 -0.0384903 -0.686027 0.150298 0.010782 -0.988582 
0.71339 -0.0240044 -0.686638 0.102628 -0.0706123 -0.99221 
0.717497 -0.009574 -0.687415 0.024279 0.0222176 -0.999458 
0.721604 0.00480091 -0.688359 -0.000612398 -0.129235 -0.991614 
0.725711 0.0188983 -0.689191 0.0564427 -0.200624 -0.978041 
0.729707 0.0328292 -0.689968 0.128252 -0.0841046 -0.988169 
0.733648 0.0464826 -0.690634 0.129212 -0.0688126 -0.989227 
0.737644 0.060025 -0.691245 0.0905028 -0.128929 -0.987515 
0.741529 0.0734009 -0.691744 -0.0485458 0.0811543 -0.995519 
0.745414 0.0865548 -0.692022 0.08069 0.0263231 -0.996392 
0.749299 0.0994866 -0.692188 -0.0354891 0.0701877 -0.996902 
0.753462 0.112641 -0.690745 -0.240199 0.154968 -0.958274 
0.75596 0.1203 -0.689413 -0.304065 0.200549 -0.931302 
0.657666 -0.097877 -0.826336 -0.48044 -0.13825 -0.866063 
0.663327 -0.0817261 -0.821174 -0.227099 0.325519 -0.917858 
0.673484 -0.0536978 -0.810518 0.543377 0.142717 -0.827269 
0.678923 -0.0418759 -0.797752 0.766407 0.517702 -0.380268 
0.6797 -0.045761 -0.783377 0.109776 0.897173 0.42782 
0.679978 -0.0538643 -0.764118 0.522893 0.792595 0.313649 
0.679811 -0.0656306 -0.740808 0.0530228 0.996679 0.0618021 
0.681587 -0.0670737 -0.725822 0.0171409 0.960163 -0.278914 
0.685084 -0.0590814 -0.718496 0.166655 0.73092 -0.661802 
0.688581 -0.0526987 -0.707562 0.295477 0.829361 -0.474188 
0.694519 -0.0420979 -0.689746 0.181731 0.318476 -0.930348 
0.698626 -0.0296656 -0.68736 0.103289 0.00754287 -0.994623 
0.702844 -0.0153462 -0.68797 0.0677319 -0.0101556 -0.997652 
0.707063 -0.00108226 -0.688747 0.124903 -0.0360153 -0.991515 
0.711225 0.0130706 -0.689524 0.115873 -0.0204008 -0.993055 
0.715277 0.0270015 -0.690357 0.078971 -0.0950961 -0.992331 
0.719328 0.0406549 -0.690912 0.0458585 -0.0844703 -0.99537 
0.723325 0.0541418 -0.691467 0.0257315 -0.0673807 -0.997395 
0.727321 0.0673512 -0.691689 -0.0373336 -0.0126154 -0.999223 
0.731261 0.0803386 -0.691633 -0.141143 0.237737 -0.96102 
0.735202 0.0924379 -0.689635 -0.218191 0.213178 -0.952338 
0.646233 -0.0980436 -0.819786 -0.476028 -0.110574 -0.872451 
0.651339 -0.0816151 -0.819675 -0.44948 0.186087 -0.873693 
0.66033 -0.0534203 -0.818288 0.492331 0.361858 -0.791624 
0.664937 -0.0405994 -0.81407 0.543377 0.142717 -0.827269 
0.664826 -0.0495352 -0.7947 -0.705013 0.702015 0.100659 
0.664937 -0.0652976 -0.758235 -0.329151 0.936387 0.121814 
0.667268 -0.0699597 -0.731317 -0.0467512 0.908274 -0.415756 
0.670043 -0.0636881 -0.725156 0.0792333 0.705819 -0.703947 
0.674816 -0.0539753 -0.712391 0.147505 0.797213 -0.585401 
0.681865 -0.0404329 -0.691855 0.137159 0.240573 -0.960891 
0.685805 -0.0291661 -0.688581 0.082647 0.105646 -0.990963 
0.689802 -0.0161787 -0.688692 0.0641237 -0.137944 -0.988362 
0.693465 -0.00391284 -0.689469 0.037548 -0.153687 -0.987406 
0.69735 0.00913003 -0.69019 0.119809 0.130186 -0.984224 
0.701512 0.0229499 -0.690801 0.0649598 -0.210974 -0.975331 
0.705564 0.0365478 -0.691245 -0.0774291 -0.00161414 -0.996997 
0.709616 0.0498682 -0.691522 -0.0930763 0.0225696 -0.995403 
0.713667 0.0626336 -0.690745 -0.302971 0.131329 -0.943907 
0.716831 0.0718468 -0.688359 -0.232273 0.127755 -0.964224 
0.634689 -0.0984876 -0.813959 -0.467562 -0.104291 -0.877786 
0.654336 -0.0704038 -0.733093 0.119116 0.715593 -0.688287 
0.659775 -0.0579159 -0.721715 0.0945329 0.731826 -0.674904 
0.665658 -0.0463716 -0.704787 -0.0122096 0.762401 -0.646989 
0.669655 -0.0387123 -0.692965 0.124844 0.495036 -0.859857 
0.673928 -0.026613 -0.68958 0.075348 0.00789175 -0.997126 
0.67798 -0.0135701 -0.689802 0.00356766 -0.166708 -0.986 
0.681643 -0.00141527 -0.690523 -0.00270992 -0.0216744 -0.999761 
0.685583 0.0114056 -0.690967 0.0439258 -0.0178306 -0.998876 
0.689746 0.0250035 -0.691245 -0.109808 -0.060825 -0.99209 
0.693853 0.0380464 -0.69069 -0.0646464 0.120968 -0.990549 
0.69735 0.0483697 -0.688692 -0.0968146 -0.0214484 -0.995071 
0.623422 -0.0991536 -0.807742 -0.470572 -0.116424 -0.874647 
0.628306 -0.0912723 -0.789482 -0.220502 0.791443 -0.570085 
0.636909 -0.078729 -0.754017 -0.154744 0.980934 -0.117573 
0.642958 -0.0681837 -0.73337 0.047774 0.735991 -0.675303 
0.647731 -0.0579159 -0.721882 0.0698229 0.726341 -0.683779 
0.653781 -0.0463161 -0.703843 0.0510519 0.656053 -0.752986 
0.658943 -0.0348272 -0.69241 0.0988616 0.28452 -0.953559 
0.662939 -0.0230054 -0.690357 -0.0141589 -0.0201365 -0.999697 
0.666657 -0.011017 -0.690745 0.0228224 -0.176094 -0.984109 
0.670376 0.000860295 -0.691078 -0.239205 0.0942163 -0.966387 
0.674317 0.0132927 -0.690801 0.0942376 -0.047855 -0.994399 
0.678202 0.024726 -0.688747 -0.135443 0.0338162 -0.990208 
0.612987 -0.0987096 -0.802414 -0.460117 -0.151119 -0.874903 
0.61765 -0.0908283 -0.785653 -0.209454 0.799933 -0.562348 
0.625753 -0.078174 -0.753406 0.00744078 0.879737 -0.475402 
0.630137 -0.0710143 -0.737033 0.132202 0.874313 -0.467012 
0.634189 -0.0627445 -0.726488 0.0580909 0.753479 -0.654901 
0.641682 -0.0476481 -0.706064 0.0602831 0.687933 -0.723266 
0.647565 -0.0346052 -0.693187 0.0170131 0.239436 -0.970763 
0.651561 -0.0230054 -0.690856 0.0233634 0.0313843 -0.999234 
0.655335 -0.0112391 -0.690856 -0.29142 0.127575 -0.94805 
0.658998 -0.000249737 -0.689413 -0.183081 0.0942451 -0.97857 
0.662051 0.00840851 -0.687582 -0.0136598 0.0702715 -0.997434 
0.603053 -0.0988761 -0.797031 -0.479002 -0.124343 -0.868962 
0.607382 -0.0914389 -0.782045 -0.308503 0.75812 -0.574526 
0.618871 -0.0708478 -0.743472 0.0284542 0.880332 -0.473503 
0.631025 -0.0474816 -0.707729 0.129314 0.722541 -0.679126 
0.637075 -0.0344387 -0.693298 -0.00420053 0.220591 -0.975357 
0.640794 -0.0239489 -0.69069 -0.0828586 0.378626 -0.921834 
0.644512 -0.0132926 -0.688581 -0.138598 0.196172 -0.970725 
0.646954 -0.00668792 -0.686305 -0.159627 0.116014 -0.980337 
0.597003 -0.0933814 -0.780991 -0.326094 0.747858 -0.578249 
0.603663 -0.0818926 -0.757347 -0.118946 0.893671 -0.43267 
0.607437 -0.0753989 -0.74386 0.0136352 0.888774 -0.458143 
0.612432 -0.0652421 -0.730651 0.0545686 0.876984 -0.477411 
0.621701 -0.0463716 -0.706785 0.109232 0.747859 -0.654809 
0.628139 -0.0323297 -0.692466 -0.122399 0.415494 -0.901323 
0.631802 -0.0227279 -0.688248 -0.210313 0.437831 -0.874113 
0.633912 -0.0172887 -0.685583 -0.261307 0.255634 -0.93079 
0.58507 -0.0987651 -0.786874 -0.198862 0.553009 -0.809095 
0.588456 -0.0924379 -0.776384 -0.237381 0.781108 -0.577513 
0.594505 -0.0816151 -0.755571 -0.118946 0.893671 -0.43267 
0.619204 -0.0317191 -0.690301 -0.0300237 0.631724 -0.774612 
0.621868 -0.0260025 -0.684418 -0.276238 0.487475 -0.828288 
0.576356 -0.0987096 -0.781768 -0.465577 -0.0930082 -0.880107 
0.580463 -0.0904398 -0.770445 -0.285632 0.79088 -0.541224 
0.609713 -0.0318856 -0.691467 -0.115398 0.747034 -0.654693 
0.611045 -0.0311641 -0.682642 -0.166759 0.979936 -0.109164 
0.611988 -0.0330512 -0.669877 -0.0928111 0.995542 0.0167748 
0.567476 -0.09821 -0.776995 -0.449029 -0.0846902 -0.889494 
0.603053 -0.0327182 -0.665159 -0.113534 0.992833 0.0373216 
0.557708 -0.0997641 -0.773054 -0.374014 -0.0770568 -0.924216 
0.55965 -0.0947135 -0.771722 -0.366892 -0.130757 -0.921028 
0.549494 -0.0979325 -0.769724 -0.27837 -0.198923 -0.939649 
0.541057 -0.09821 -0.767282 -0.202006 -0.091022 -0.975145 
0.533065 -0.0983211 -0.76545 -0.193123 -0.402924 -0.894626 
0.525073 -0.0989316 -0.764063 -0.0760063 -0.188658 -0.979097 
0.515027 -0.106258 -0.760899 -0.248699 -0.162386 -0.954872 
0.517469 -0.0990426 -0.763064 -0.146002 -0.0072892 -0.989258 
0.506147 -0.111086 -0.760067 0.181071 -0.106445 -0.977693 
0.508977 -0.102928 -0.761621 0.0236874 -0.226919 -0.973626 
0.511308 -0.0963785 -0.761676 -0.0904293 -0.235984 -0.96754 
0.497988 -0.113695 -0.761232 0.132772 -0.100214 -0.986067 
0.50093 -0.105647 -0.761454 0.312361 -0.141088 -0.939428 
0.503483 -0.0985986 -0.761843 0.0415172 -0.198945 -0.979131 
0.490162 -0.115194 -0.762453 0.265918 0.00481203 -0.963984 
0.493104 -0.107035 -0.762897 0.0892723 -0.458716 -0.884087 
0.49599 -0.0993756 -0.76262 0.102325 -0.100192 -0.989692 
0.497766 -0.0946024 -0.762453 0.0824526 -0.157299 -0.984103 
0.481393 -0.118468 -0.76373 0.300423 -0.0891234 -0.949633 
0.484335 -0.110309 -0.764229 0.128712 -0.0638838 -0.989622 
0.487276 -0.102539 -0.764174 0.287023 0.0545484 -0.956369 
0.489774 -0.0959345 -0.763841 0.117621 -0.133608 -0.98403 
0.474011 -0.117913 -0.765228 0.213127 -0.0403374 -0.976191 
0.477008 -0.10981 -0.765617 0.334275 0.152715 -0.930021 
0.479895 -0.10204 -0.765561 0.246352 -0.138402 -0.959247 
0.482781 -0.0944914 -0.765173 0.183113 -0.0623607 -0.981112 
0.467351 -0.11586 -0.766671 0.130936 0.114511 -0.984755 
0.470348 -0.107867 -0.766949 0.0710586 0.0120446 -0.997399 
0.473234 -0.100208 -0.766671 0.119535 0.0550617 -0.991302 
0.476065 -0.0927709 -0.766227 0.238233 -0.0523729 -0.969795 
0.460192 -0.116304 -0.767781 0.192096 0.320884 -0.927433 
0.463189 -0.108311 -0.768003 0.303753 -0.160597 -0.939118 
0.466075 -0.100708 -0.767726 0.290706 0.132223 -0.947632 
0.468961 -0.0932149 -0.767337 0.18589 -0.240702 -0.952632 
0.470737 -0.0886638 -0.766949 0.0874545 -0.257452 -0.962325 
0.454031 -0.11475 -0.769002 0.130077 -0.0669296 -0.989242 
0.456972 -0.106868 -0.769058 0.156615 -0.0555899 -0.986094 
0.459914 -0.0992091 -0.768836 0.181998 0.357042 -0.916187 
0.462745 -0.0919384 -0.76817 0.110999 -0.0681558 -0.991481 
0.464465 -0.0873872 -0.767726 0.0364626 -0.0884909 -0.995409 
0.447204 -0.114972 -0.769779 0.0946492 -0.117419 -0.988562 
0.450257 -0.107035 -0.769946 0.168421 -0.161733 -0.972356 
0.453143 -0.0994311 -0.769724 0.152469 0.228075 -0.961631 
0.455973 -0.0921049 -0.769058 0.192102 -0.0062049 -0.981355 
0.458082 -0.0867767 -0.768447 0.192253 -0.0446093 -0.980331 
0.44121 -0.112141 -0.771056 0.155044 -0.0533272 -0.986467 
0.444207 -0.104371 -0.770945 0.0786415 -0.086795 -0.993117 
0.447093 -0.0968225 -0.770612 0.272936 0.185625 -0.943954 
0.449924 -0.0896628 -0.769779 0.194841 0.072578 -0.978146 
0.452033 -0.0843902 -0.769058 0.062298 -0.184683 -0.980822 
0.434439 -0.110143 -0.772665 0.228306 -0.00224432 -0.973587 
0.437436 -0.102428 -0.772554 0.103295 -0.0610236 -0.992777 
0.440322 -0.0950465 -0.771944 0.114825 0.0147592 -0.993276 
0.443097 -0.0879423 -0.771056 0.227338 -0.0400257 -0.972993 
0.445206 -0.0827806 -0.770112 0.155399 -0.246845 -0.956514 
0.4285 -0.105758 -0.774275 0.24158 -0.0125522 -0.9703 
0.431386 -0.0983211 -0.773775 0.243648 -0.0905692 -0.965626 
0.434272 -0.0911059 -0.772943 0.172581 0.0560809 -0.983398 
0.437047 -0.0841126 -0.771888 0.122911 0.114206 -0.985824 
0.421784 -0.10376 -0.775385 0.21167 -0.0837086 -0.97375 
0.424726 -0.0963785 -0.77483 0.104933 0.0134478 -0.994388 
0.427557 -0.0892743 -0.773886 0.126211 0.0553637 -0.990457 
0.430332 -0.0824476 -0.77261 0.0627382 0.0195441 -0.997839 
0.434883 -0.0716803 -0.768614 0.118459 0.0983005 -0.988081 
0.415957 -0.100097 -0.776218 0.167505 0.0937456 -0.981404 
0.418898 -0.0928819 -0.775441 0.0666248 0.0360962 -0.997125 
0.421673 -0.0860552 -0.774109 0.228428 0.0457625 -0.972485 
0.424115 -0.080172 -0.772887 0.161945 0.124219 -0.97895 
0.409352 -0.0980436 -0.777106 0.0578373 0.226374 -0.972322 
0.412238 -0.0908283 -0.776273 -0.0219771 0.0640139 -0.997707 
0.415069 -0.0840571 -0.774886 0.0273643 0.159471 -0.986823 
0.417511 -0.0781185 -0.773831 0.0669118 0.0591149 -0.996006 
0.403524 -0.0923824 -0.777772 0.190746 0.265911 -0.944938 
0.407021 -0.0838906 -0.776107 0.0291848 -0.0507715 -0.998284 
0.409852 -0.0772304 -0.774608 0.0338896 0.0100777 -0.999375 
0.396032 -0.0887748 -0.778937 -0.0319412 -0.239691 -0.970324 
0.399528 -0.080505 -0.776995 0.0893958 -0.0988193 -0.991082 
0.401915 -0.0747884 -0.775607 0.156871 -0.140375 -0.977592 
0.388761 -0.0837796 -0.779936 0.283357 0.153013 -0.946729 
0.392147 -0.0758429 -0.777661 0.202854 0.12791 -0.970819 
0.380269 -0.0820591 -0.780991 0.331737 0.0790363 -0.940055 
0.383322 -0.0750104 -0.778715 0.102177 -0.11426 -0.988182 
0.37261 -0.080061 -0.781379 0.21595 0.0996623 -0.971305 
0.375663 -0.0731788 -0.779048 0.0550357 0.105359 -0.99291 
0.364784 -0.0800055 -0.782156 0.250401 0.105895 -0.962333 
0.36817 -0.0723463 -0.779548 0.167214 0.0863648 -0.982131 
0.371 -0.0661301 -0.776828 0.0984636 -0.05929 -0.993373 
0.358291 -0.0777855 -0.782545 0.206503 0.251889 -0.945467 
0.361343 -0.0710143 -0.779992 0.155803 0.160818 -0.974609 
0.351297 -0.0774525 -0.783766 0.0637394 0.0894432 -0.99395 
0.353961 -0.0715138 -0.781435 0.0848436 0.149782 -0.985072 
0.355682 -0.0675732 -0.780269 0.0848435 0.149782 -0.985072 
0.345747 -0.0751769 -0.783988 0.18622 0.144443 -0.971832 
0.348411 -0.0692382 -0.781601 0.066966 0.147851 -0.98674 
0.340142 -0.0751769 -0.784765 0.0501997 0.169792 -0.984201 
0.34275 -0.0692937 -0.782267 0.196462 0.265535 -0.943872 
0.335535 -0.0750659 -0.785375 0.182149 0.0735585 -0.980516 
0.337477 -0.0707923 -0.783322 -0.0528561 0.371961 -0.926742 
0.339143 -0.0670737 -0.781768 0.199076 0.30905 -0.929977 
0.331039 -0.0761759 -0.786097 0.0959969 0.196849 -0.975723 
0.333037 -0.0717358 -0.78421 0.00858934 0.391292 -0.920226 
0.335035 -0.0674067 -0.782212 0.202735 0.0558036 -0.977642 
0.327598 -0.0755099 -0.786097 0.0998275 0.604481 -0.79034 
0.329541 -0.0711808 -0.783988 0.15694 0.342458 -0.926333 
0.331594 -0.0666851 -0.782212 0.00238272 0.110776 -0.993843 
0.323602 -0.0755099 -0.786763 -0.136332 0.137168 -0.981121 
0.3256 -0.0712363 -0.784654 0.111914 0.415894 -0.902501 
0.327598 -0.0667961 -0.782822 -0.0229474 0.0530548 -0.998328 
0.320272 -0.0736783 -0.786541 0.0249484 0.117383 -0.992773 
0.32227 -0.0692937 -0.784487 0.289285 0.186853 -0.938829 
0.323991 -0.0656306 -0.782989 0.102375 0.150811 -0.983247 
0.316165 -0.0729568 -0.78704 -0.164173 -0.0118467 -0.98636 
0.318163 -0.0686832 -0.784876 0.276209 0.326017 -0.904114 
0.319828 -0.0650756 -0.783266 0.128967 -0.138555 -0.981922 
0.312557 -0.0707368 -0.786652 0.079273 0.0697251 -0.994411 
0.314555 -0.0663521 -0.784598 0.187015 0.201237 -0.961524 
0.315943 -0.0634106 -0.783377 0.0988192 0.0622153 -0.993159 
0.307951 -0.0695712 -0.786818 0.0511621 0.00703798 -0.998666 
0.309949 -0.0652421 -0.784765 0.163752 -0.0674264 -0.984195 
0.303622 -0.0659081 -0.785986 0.0332831 -0.127032 -0.99134 
0.297072 -0.0647426 -0.786541 0.0106815 -0.0817676 -0.996594 
0.289413 -0.0637991 -0.787207 0.0272828 0.131029 -0.991003 
0.28131 -0.0630775 -0.78815 0.0942147 0.153588 -0.983633 
0.27304 -0.0632995 -0.789149 0.123503 0.0790433 -0.989191 
0.264715 -0.0641876 -0.790759 0.104904 0.029281 -0.994051 
0.267157 -0.0591924 -0.788372 0.176437 -0.113841 -0.977707 
0.256889 -0.0646316 -0.792202 0.166171 0.220289 -0.961176 
0.259664 -0.0590814 -0.78926 0.169537 0.0269924 -0.985154 
0.24923 -0.0651866 -0.793756 0.155704 0.0700888 -0.985314 
0.251894 -0.059803 -0.790592 0.197462 0.136098 -0.970817 
0.242348 -0.0641321 -0.794311 0.129481 0.188116 -0.973574 
0.245067 -0.0586929 -0.791258 0.214933 0.0672856 -0.974308 
0.234966 -0.0646316 -0.795921 0.104329 0.194849 -0.975269 
0.237686 -0.0593034 -0.792702 0.223971 -0.00392359 -0.974588 
0.228139 -0.0642986 -0.796809 0.236328 0.308865 -0.921277 
0.231192 -0.0584154 -0.793035 0.0961423 0.1752 -0.979827 
0.220869 -0.0655751 -0.798418 0.0354599 0.36279 -0.931196 
0.224254 -0.0589704 -0.794311 0.0257826 0.354306 -0.934774 
0.215818 -0.0628555 -0.79753 0.17978 0.267253 -0.946708 
0.218871 -0.0569724 -0.793756 0.0981096 0.321886 -0.941681 
0.208769 -0.0639656 -0.79914 0.039435 0.332272 -0.942359 
0.211877 -0.0580824 -0.79531 0.104428 0.260415 -0.959833 
0.202331 -0.0639656 -0.800028 0.243783 0.427778 -0.870388 
0.205772 -0.0574719 -0.79581 0.18145 0.42612 -0.886283 
0.19506 -0.0655196 -0.802192 0.0986956 0.440329 -0.892396 
0.198446 -0.0591369 -0.797697 0.115405 0.368733 -0.922344 
0.200888 -0.0544748 -0.795033 0.285827 0.472575 -0.833652 
0.188511 -0.0660191 -0.803469 0.253509 0.318993 -0.913223 
0.191897 -0.0596364 -0.799029 0.0629682 0.415144 -0.907574 
0.194672 -0.0544193 -0.795754 0.0159419 0.400553 -0.916135 
0.198168 -0.0482031 -0.789538 0.0277506 0.661297 -0.749611 
0.202942 -0.0399334 -0.779048 0.101307 0.617725 -0.779841 
0.181573 -0.0676287 -0.805356 0.0839918 0.421019 -0.903155 
0.184959 -0.0613015 -0.800805 0.0559808 0.536912 -0.841779 
0.188123 -0.0554738 -0.797031 0.119398 0.320889 -0.939561 
0.175302 -0.0679617 -0.806577 0.198405 0.288611 -0.936664 
0.178021 -0.0629665 -0.802969 0.204527 0.435408 -0.876692 
0.180796 -0.0578604 -0.799528 0.158581 0.341377 -0.926452 
0.18285 -0.0540863 -0.79692 0.184445 0.199357 -0.962412 
0.168697 -0.0686277 -0.807909 0.17703 0.445152 -0.877782 
0.171417 -0.0635771 -0.804301 0.275891 0.469417 -0.838768 
0.174192 -0.0585264 -0.800805 0.181825 0.54105 -0.8211 
0.176578 -0.0540863 -0.797752 0.162835 0.414283 -0.895463 
0.162592 -0.0677397 -0.808297 0.0359899 0.437295 -0.898598 
0.165367 -0.0627445 -0.80469 -0.0471827 0.683313 -0.728599 
0.168087 -0.0577494 -0.801138 0.0790789 0.457942 -0.885458 
0.170529 -0.0533093 -0.79803 0.143384 0.0810513 -0.986343 
0.155987 -0.0675177 -0.80913 0.191589 0.448593 -0.872959 
0.159428 -0.061357 -0.804468 0.316583 0.539345 -0.780309 
0.162869 -0.0551408 -0.799861 0.301392 0.217564 -0.928347 
0.16509 -0.0509782 -0.797974 -0.00348137 -0.0512979 -0.998677 
0.149494 -0.0674067 -0.810018 0.1914 0.436387 -0.879166 
0.152269 -0.0624115 -0.806466 0.15673 0.643451 -0.74927 
0.154988 -0.0575274 -0.802692 0.231477 0.478553 -0.846998 
0.15743 -0.0531428 -0.799584 0.154594 0.36928 -0.916369 
0.142889 -0.0680727 -0.811683 0.173571 0.347905 -0.921322 
0.145608 -0.063133 -0.807964 0.233332 0.671884 -0.702943 
0.148384 -0.0583044 -0.804135 0.352159 0.446189 -0.822739 
0.151103 -0.0533648 -0.800472 0.0917826 0.256211 -0.962254 
0.137172 -0.0677397 -0.812127 0.0720791 0.682859 -0.726985 
0.139892 -0.0628 -0.808464 -0.0209667 0.571887 -0.820064 
0.142722 -0.0578049 -0.804856 0.138844 0.56224 -0.815235 
0.145442 -0.0529763 -0.801027 0.188057 0.353875 -0.916191 
0.131123 -0.0683502 -0.813515 0.214488 0.265188 -0.940037 
0.133898 -0.0634106 -0.809907 0.275966 0.506811 -0.816692 
0.136673 -0.0585264 -0.806133 0.103696 0.502411 -0.858389 
0.139392 -0.0536978 -0.802359 0.124877 0.337222 -0.933106 
0.141113 -0.0505897 -0.800083 0.162145 0.524647 -0.835736 
0.126127 -0.0675177 -0.813959 0.12544 0.362943 -0.923329 
0.128902 -0.0626335 -0.81024 0.0805291 0.487979 -0.869133 
0.131678 -0.0577494 -0.806466 0.156871 0.602071 -0.782881 
0.134397 -0.0529763 -0.802581 0.0852821 0.474406 -0.876165 
0.136173 -0.0497572 -0.800583 0.12519 0.0278921 -0.991741 
0.120744 -0.0681837 -0.815124 0.0791158 0.253609 -0.964066 
0.123519 -0.063355 -0.811406 0.0808849 0.542739 -0.835998 
0.126294 -0.0584709 -0.807576 -0.165173 0.700238 -0.694539 
0.129014 -0.0537533 -0.803635 -0.0190314 0.4777 -0.878317 
0.130734 -0.0506452 -0.801415 -0.0333954 0.37194 -0.927656 
0.116137 -0.0682947 -0.815624 0.225239 0.281493 -0.932754 
0.118579 -0.0640211 -0.812405 0.142669 0.580398 -0.801738 
0.120633 -0.060469 -0.809352 0.0618323 0.571736 -0.818104 
0.122686 -0.0568614 -0.806521 0.18252 0.461313 -0.868261 
0.12474 -0.0533648 -0.803469 0.23111 0.547179 -0.804477 
0.126516 -0.0502012 -0.801304 0.0641478 0.573926 -0.816391 
0.11092 -0.0700152 -0.817289 0.189614 0.221931 -0.956448 
0.113695 -0.0651311 -0.81357 0.137273 0.471923 -0.870887 
0.116526 -0.0603025 -0.809852 0.120463 0.59556 -0.794227 
0.119245 -0.0556403 -0.805744 0.0441825 0.669542 -0.741459 
0.121687 -0.0514222 -0.802414 0.237643 0.232838 -0.943034 
0.123186 -0.0489246 -0.799917 0.136088 0.390924 -0.910307 
0.106369 -0.0709588 -0.818565 0.217795 0.0980891 -0.971053 
0.108478 -0.0672402 -0.815901 0.34284 0.539769 -0.768837 
0.110587 -0.0636881 -0.81296 0.0122936 0.474828 -0.879993 
0.112696 -0.060025 -0.810129 0.316117 0.418906 -0.851227 
0.114805 -0.0564729 -0.807243 0.22907 0.447047 -0.864682 
0.116859 -0.0529207 -0.80419 0.232199 0.464683 -0.85449 
0.118635 -0.0499237 -0.801859 0.134658 0.39601 -0.908319 
0.102262 -0.0721798 -0.819953 0.440571 -0.364001 -0.82061 
0.104482 -0.0683502 -0.817511 0.659711 0.194614 -0.725883 
0.106591 -0.0646871 -0.814791 0.0889525 0.544124 -0.834276 
0.1087 -0.0610795 -0.811905 -0.149574 0.866459 -0.476315 
0.110809 -0.0575829 -0.808908 -0.163221 0.704262 -0.690922 
0.112863 -0.0540863 -0.805744 -0.848204 0.523303 -0.0818773 
0.114972 -0.0504232 -0.803025 0.220696 0.374209 -0.9007 
0.0995977 -0.0727348 -0.820952 0.0172442 -0.155878 -0.987626 
0.101041 -0.0702372 -0.819231 -0.91647 0.3333 -0.221345 
0.102428 -0.0678507 -0.817344 -0.493144 0.752434 -0.436636 
0.103871 -0.0653531 -0.815568 -0.754362 0.625643 -0.198771 
0.10537 -0.0628 -0.813903 -0.607354 0.621603 -0.494703 
0.106702 -0.060469 -0.81185 -0.101018 0.771402 -0.628278 
0.108089 -0.0581379 -0.809852 -0.0523402 0.798455 -0.599775 
0.109477 -0.0557513 -0.807853 -0.163221 0.704262 -0.690922 
0.110864 -0.0535313 -0.805633 -0.3002 0.683574 -0.665287 
0.112308 -0.0510337 -0.803857 -0.599674 0.797105 0.0708184 
0.113418 -0.0490911 -0.802692 0.188443 -0.392168 -0.900385 
-0.336367 -0.00629941 -0.783266 -0.00280776 -0.00742194 -0.999969 
-0.33115 -0.00679892 -0.7826 0.0833728 0.000806752 -0.996518 
-0.326433 -0.00735394 -0.781435 0.13897 -0.0714323 -0.987717 
-0.320549 -0.00796446 -0.780547 0.148 -0.0657724 -0.986798 
-0.315554 -0.00846397 -0.779881 0.177271 -0.110037 -0.977991 
-0.310559 -0.00918549 -0.778216 0.213079 -0.139348 -0.967047 
-0.305286 -0.00968501 -0.777494 0.229315 -0.155836 -0.960797 
-0.30068 -0.0102955 -0.776107 0.221829 -0.106962 -0.969201 
-0.294686 -0.011017 -0.774719 0.229343 -0.085594 -0.969575 
-0.290024 -0.0115721 -0.773498 0.245569 -0.095436 -0.96467 
-0.284917 -0.0121826 -0.772055 0.263157 -0.135681 -0.955164 
-0.279867 -0.0128486 -0.77039 0.288125 -0.150627 -0.945672 
-0.274761 -0.0135146 -0.768836 0.287045 -0.137083 -0.948058 
-0.269654 -0.0141251 -0.767337 0.250482 0.127533 -0.959684 
-0.264604 -0.0148467 -0.765561 0.309695 0.134633 -0.941256 
-0.259553 -0.0155127 -0.763952 0.272075 -0.148209 -0.950794 
-0.254447 -0.0161232 -0.762398 0.288903 -0.162672 -0.943437 
-0.249285 -0.0167892 -0.760899 0.27771 -0.168942 -0.945693 
-0.244179 -0.0174552 -0.759234 0.275625 -0.167512 -0.946557 
-0.239073 -0.0181768 -0.757458 0.280729 -0.151031 -0.94783 
-0.233967 -0.0187873 -0.755959 0.273425 -0.145979 -0.950752 
-0.0657416 -0.0356043 -0.736756 -0.0939897 0.933226 -0.346779 
-0.0603024 -0.0358818 -0.738032 0.00607339 0.960954 -0.276642 
-0.0549188 -0.0361038 -0.739087 -0.00933497 0.865257 -0.501241 
-0.0495907 -0.0364368 -0.739809 0.0160007 0.927728 -0.372914 
-0.0157902 -0.0356043 -0.762564 -0.0873462 0.996152 -0.00720285 
-0.0114055 -0.0356043 -0.764729 -0.0690128 0.997139 -0.0308503 
-0.332871 -0.00313582 -0.783266 0.0551133 -0.0209126 -0.998261 
-0.328653 -0.00363533 -0.782267 0.141874 -0.0748535 -0.987051 
-0.323324 -0.00424585 -0.781102 0.0722388 -0.0778728 -0.994343 
-0.315832 -0.00502287 -0.780158 0.171037 -0.0750207 -0.982404 
-0.310226 -0.00557789 -0.779381 0.209746 -0.112842 -0.971223 
-0.303899 -0.00646592 -0.777328 0.252486 -0.122778 -0.959779 
-0.298682 -0.00707643 -0.775996 0.245661 -0.0810436 -0.965962 
-0.293132 -0.00768695 -0.774719 0.219547 -0.0779092 -0.972486 
-0.286915 -0.00846397 -0.773165 0.235481 -0.104056 -0.966292 
-0.281643 -0.00912999 -0.771666 0.277909 -0.137844 -0.950666 
-0.276648 -0.00979601 -0.769835 0.29354 -0.150841 -0.943971 
-0.271597 -0.0104065 -0.768336 0.277596 -0.13813 -0.950716 
-0.266546 -0.0110725 -0.766616 0.273418 -0.130458 -0.953007 
-0.261385 -0.0116831 -0.76545 0.263663 -0.138338 -0.954643 
-0.256945 -0.0122381 -0.764007 0.290872 -0.139028 -0.946607 
-0.251394 -0.0130151 -0.762065 0.280596 -0.126326 -0.951476 
-0.246177 -0.0136811 -0.7604 0.269158 -0.134947 -0.953595 
-0.241016 -0.0143471 -0.758846 0.291143 -0.155324 -0.943986 
-0.235909 -0.0150132 -0.757181 0.278442 -0.149593 -0.948732 
-0.230803 -0.0156792 -0.755626 0.271179 -0.146161 -0.951367 
-0.225642 -0.0163452 -0.754017 0.308524 -0.175044 -0.934972 
-0.220536 -0.0170112 -0.752463 0.254453 -0.136836 -0.957355 
-0.21715 -0.0175107 -0.751297 0.218534 -0.136661 -0.966213 
-0.0414319 -0.0346607 -0.733592 -0.0201468 0.942609 -0.333291 
-0.0360483 -0.0348827 -0.735035 -0.0596254 0.92547 -0.3741 
-0.0307201 -0.0351602 -0.735979 0.014146 0.926475 -0.376091 
-0.0262245 -0.0354377 -0.736423 0.0705947 0.872356 -0.483747 
0.00108232 -0.0342167 -0.758513 -0.0170599 0.974488 -0.22379 
0.00629949 -0.0344387 -0.759623 0.0351734 0.951912 -0.304346 
0.0132927 -0.0347717 -0.760677 0.0138107 0.958898 -0.283416 
0.0167338 -0.0349937 -0.761066 0.0138107 0.958898 -0.283416 
-0.332371 -0.000138734 -0.782878 0.0476643 -0.0608304 -0.997009 
-0.32671 -0.00069375 -0.782101 0.0678092 -0.127242 -0.989551 
-0.321715 -0.00124877 -0.781379 0.140328 -0.0754643 -0.987225 
-0.316942 -0.00174828 -0.780658 0.145348 -0.0661436 -0.987167 
-0.311836 -0.0023588 -0.779603 0.190191 -0.053864 -0.980268 
-0.306896 -0.00285831 -0.778715 0.237211 -0.072975 -0.968713 
-0.304176 -0.00324682 -0.777883 0.242735 -0.077805 -0.966968 
-0.299958 -0.00374634 -0.776828 0.254189 -0.104346 -0.961509 
-0.292355 -0.00468986 -0.774664 0.220808 -0.088863 -0.971261 
-0.285195 -0.00557789 -0.772721 0.237036 -0.10988 -0.965267 
-0.280477 -0.00613291 -0.771722 0.272795 -0.136745 -0.952305 
-0.275482 -0.00679892 -0.769946 0.286712 -0.154531 -0.945471 
-0.270431 -0.00746494 -0.768392 0.273491 -0.16 -0.948474 
-0.265325 -0.00807546 -0.766782 0.268899 -0.15017 -0.95139 
-0.260275 -0.00874148 -0.765228 0.274567 -0.119677 -0.954091 
-0.255169 -0.0094075 -0.763674 0.28956 -0.135127 -0.947574 
-0.250118 -0.010018 -0.762009 0.269062 -0.149357 -0.951472 
-0.244956 -0.0106285 -0.760677 0.261658 -0.151083 -0.953262 
-0.240738 -0.0111836 -0.75929 0.291945 -0.139643 -0.946186 
-0.23652 -0.0117941 -0.757736 0.282845 -0.140336 -0.948844 
-0.231358 -0.0124046 -0.756237 0.270809 -0.132643 -0.953451 
-0.226252 -0.0131261 -0.754572 0.320677 -0.206312 -0.924447 
-0.221146 -0.0137921 -0.752851 0.265688 -0.168077 -0.949294 
-0.215984 -0.0144581 -0.751408 0.261315 -0.12612 -0.956979 
-0.211711 -0.0150132 -0.750132 0.275629 -0.136307 -0.951551 
-0.198834 -0.0167337 -0.746025 0.235558 -0.177039 -0.955599 
-0.078396 -0.0330512 -0.706619 -0.499812 0.634323 0.589764 
-0.0757319 -0.0336062 -0.704843 0.16004 0.904038 -0.396363 
-0.0254474 -0.0334397 -0.730262 -0.0346531 0.991018 -0.129161 
-0.0218399 -0.0336062 -0.731095 -0.075518 0.989883 -0.120117 
-0.0182877 -0.0337727 -0.731816 0.014935 0.985028 -0.171746 
-0.0147356 -0.0339392 -0.732538 0.0446406 0.969095 -0.242616 
-0.011128 -0.0342167 -0.732593 0.0741189 0.92125 -0.381843 
-0.00846396 -0.0344387 -0.732538 -0.00980216 0.920781 -0.389956 
0.0151242 -0.0330512 -0.753628 0.0138107 0.958898 -0.283416 
0.0192868 -0.0332732 -0.754405 0.0138107 0.958898 -0.283416 
0.026613 -0.0334952 -0.756459 -0.019087 0.954079 -0.298948 
0.0307202 -0.0336062 -0.757902 -0.0298736 0.979991 -0.196787 
-0.327043 0.00224783 -0.782156 0.079854 -0.141168 -0.98676 
-0.319273 0.00135981 -0.780769 0.156807 -0.0842889 -0.984026 
-0.313001 0.00069379 -0.779825 0.165506 -0.0770228 -0.983196 
-0.309394 0.000305279 -0.779104 0.188282 -0.0710563 -0.979541 
-0.30573 -8.32321e-05 -0.778438 0.22505 -0.105768 -0.96859 
-0.30068 -0.000749251 -0.77705 0.253642 -0.137484 -0.957478 
-0.29463 -0.00152627 -0.775219 0.232959 -0.117171 -0.965402 
-0.28797 -0.00224779 -0.773886 0.231946 -0.127853 -0.96429 
-0.283696 -0.00274731 -0.773054 0.237518 -0.132178 -0.962348 
-0.279034 -0.00330232 -0.771666 0.271886 -0.126179 -0.954022 
-0.27465 -0.00391284 -0.770223 0.275795 -0.148147 -0.949731 
-0.270487 -0.00446786 -0.768891 0.266048 -0.158269 -0.950878 
-0.266269 -0.00496737 -0.767559 0.277088 -0.157105 -0.947914 
-0.262051 -0.00552239 -0.766227 0.275339 -0.147449 -0.949972 
-0.258665 -0.0059109 -0.765228 0.276405 -0.149312 -0.949372 
-0.25528 -0.00641041 -0.764118 0.286513 -0.131595 -0.948996 
-0.251894 -0.00685443 -0.762897 0.27299 -0.155849 -0.949309 
-0.248508 -0.00724294 -0.761898 0.262031 -0.161415 -0.951465 
-0.245123 -0.00768695 -0.760955 0.261335 -0.157512 -0.95231 
-0.241682 -0.00807546 -0.759956 0.299936 -0.144474 -0.942956 
-0.238296 -0.00851947 -0.758846 0.296334 -0.145573 -0.943925 
-0.23491 -0.00896349 -0.75768 0.272147 -0.137559 -0.952372 
-0.231525 -0.0094075 -0.756737 0.258867 -0.154787 -0.95343 
-0.228084 -0.00985151 -0.755737 0.265857 -0.161925 -0.950316 
-0.224643 -0.0102955 -0.754572 0.298734 -0.162427 -0.940413 
-0.221257 -0.0107395 -0.753295 0.271676 -0.203312 -0.940668 
-0.217871 -0.0111836 -0.752352 0.257904 -0.161893 -0.95251 
-0.21443 -0.0116276 -0.751297 0.260235 -0.167406 -0.950922 
-0.210989 -0.0120716 -0.750409 0.302279 -0.141922 -0.942595 
-0.207548 -0.0125156 -0.749299 0.291277 -0.198124 -0.935898 
-0.204163 -0.0129596 -0.748189 0.228114 -0.194116 -0.954087 
-0.192119 -0.0145136 -0.744582 0.275585 -0.230996 -0.93311 
-0.0286111 -0.0327182 -0.71511 -0.13207 0.990008 -0.0494159 
-0.0250034 -0.0326072 -0.717497 -0.0324258 0.998092 -0.0525539 
-0.0200638 -0.0325517 -0.720272 -0.0259174 0.998753 -0.04267 
-0.0155682 -0.0324962 -0.722603 -0.0058936 0.999836 -0.0171167 
-0.0110725 -0.0324407 -0.725212 -0.145108 0.945008 -0.293092 
-0.00707642 -0.0324962 -0.726821 -0.0806204 0.957177 -0.27805 
-0.00352432 -0.0325517 -0.72832 -0.0509782 0.931356 -0.360523 
8.32913e-05 -0.0327182 -0.729152 -0.0872274 0.844532 -0.528354 
0.00363539 -0.0328847 -0.729874 -0.0315748 0.886977 -0.460733 
0.00718749 -0.0330512 -0.730651 0.032217 0.92723 -0.373104 
0.0107396 -0.0333287 -0.730817 0.084549 0.900084 -0.427435 
0.0134592 -0.0335507 -0.730651 0.133768 0.943501 -0.303169 
0.0394894 -0.0322742 -0.75213 0.051358 0.915644 -0.398697 
0.0435411 -0.0323297 -0.753906 0.0357732 0.942675 -0.331788 
0.0461496 -0.0324962 -0.754294 0.0357732 0.942675 -0.331788 
-0.329374 0.00552243 -0.7831 0.144313 -0.077374 -0.986502 
-0.326821 0.00524492 -0.782767 0.144313 -0.077374 -0.986502 
-0.32338 0.00485641 -0.782101 0.156718 -0.091435 -0.983402 
-0.318274 0.00430139 -0.781157 0.156145 -0.0873195 -0.983867 
-0.313667 0.00385738 -0.780547 0.15129 -0.121816 -0.980955 
-0.308173 0.00319136 -0.779326 0.18069 -0.113205 -0.977004 
-0.303732 0.00263635 -0.778327 0.216546 -0.120596 -0.968795 
-0.300125 0.00219233 -0.777383 0.21899 -0.121532 -0.968129 
-0.296129 0.00174832 -0.776384 0.231789 -0.155502 -0.960257 
-0.292299 0.00124881 -0.775441 0.204011 -0.169867 -0.964119 
-0.287193 0.000638289 -0.77422 0.231766 -0.154396 -0.960441 
-0.283474 0.000194276 -0.773054 0.242526 -0.138233 -0.960246 
-0.279256 -0.00036074 -0.771944 0.251969 -0.131802 -0.958718 
-0.274983 -0.000804753 -0.770778 0.270607 -0.146959 -0.951407 
-0.271431 -0.00130427 -0.769613 0.258879 -0.142509 -0.955339 
-0.266768 -0.00185928 -0.768447 0.284927 -0.154592 -0.946001 
-0.263216 -0.0023588 -0.767115 0.28915 -0.139699 -0.947036 
-0.259831 -0.00274731 -0.766061 0.28016 -0.138448 -0.949917 
-0.256501 -0.00319132 -0.764895 0.259878 -0.141156 -0.955269 
-0.253115 -0.00357983 -0.764063 0.258904 -0.165459 -0.951626 
-0.249674 -0.00396834 -0.763175 0.256662 -0.174189 -0.950675 
-0.246066 -0.00441236 -0.762009 0.277099 -0.165545 -0.946473 
-0.24146 -0.00507838 -0.7604 0.297072 -0.164899 -0.940509 
-0.237908 -0.00552239 -0.759068 0.281349 -0.171039 -0.944239 
-0.234466 -0.0059109 -0.75818 0.260882 -0.156566 -0.95259 
-0.231081 -0.00641041 -0.756959 0.25495 -0.168553 -0.952151 
-0.22764 -0.00679892 -0.75607 0.259646 -0.153596 -0.953411 
-0.224199 -0.00724294 -0.755071 0.282911 -0.177465 -0.942586 
-0.220813 -0.00768695 -0.75385 0.26368 -0.183021 -0.947088 
-0.217427 -0.00813096 -0.752907 0.24449 -0.187849 -0.951282 
-0.213986 -0.00851947 -0.751852 0.258427 -0.184536 -0.948242 
-0.210545 -0.00901899 -0.750742 0.320943 -0.184444 -0.928965 
-0.20716 -0.009463 -0.749577 0.307794 -0.123735 -0.943373 
-0.203719 -0.00990701 -0.748689 0.219022 -0.122286 -0.968027 
-0.200277 -0.010351 -0.747523 0.257279 -0.159426 -0.953095 
-0.196892 -0.010795 -0.746524 0.22019 -0.161361 -0.962018 
-0.193395 -0.0111836 -0.745747 0.264226 -0.154235 -0.952048 
-0.189066 -0.0117386 -0.744471 0.320267 -0.130388 -0.938311 
-0.184793 -0.0123491 -0.742917 0.297076 -0.146589 -0.943534 
-0.181351 -0.0128486 -0.741696 0.265392 -0.140862 -0.953795 
-0.044984 -0.0314416 -0.69574 0.328431 0.691672 -0.643213 
-0.0413209 -0.0318301 -0.695185 -0.00598872 0.946942 -0.321348 
-0.0376578 -0.0320522 -0.695574 -0.040905 0.988234 -0.14738 
0.000416287 -0.0316081 -0.716609 -0.0688094 0.991077 0.114155 
0.00308038 -0.0315526 -0.718329 -0.0635812 0.991826 0.110628 
0.00618846 -0.0314416 -0.720716 -0.431836 0.25584 -0.864907 
0.0106286 -0.0313861 -0.723325 -0.10967 0.952414 -0.284395 
0.0146247 -0.0314416 -0.724823 -0.0101941 0.945971 -0.324091 
0.0217289 -0.0317746 -0.726488 -0.0840503 0.926307 -0.367275 
0.0253365 -0.0319411 -0.727043 -0.0840503 0.926307 -0.367275 
0.0563619 -0.0312196 -0.74769 0.0357732 0.942675 -0.331788 
0.0597475 -0.0312196 -0.749521 0.0357732 0.942675 -0.331788 
-0.327376 0.0080755 -0.782545 0.147106 -0.0634781 -0.987082 
-0.322547 0.00763149 -0.782101 0.156732 -0.0516402 -0.98629 
-0.316553 0.00696547 -0.781046 0.13458 -0.0890644 -0.986892 
-0.310948 0.00641045 -0.780269 0.148671 -0.103487 -0.983457 
-0.306396 0.00591094 -0.779492 0.188794 -0.115134 -0.975244 
-0.301734 0.00535592 -0.778438 0.227798 -0.117788 -0.966558 
-0.298182 0.00491191 -0.777494 0.21058 -0.132803 -0.968514 
-0.294408 0.0044679 -0.776551 0.212182 -0.141218 -0.966973 
-0.288469 0.00380188 -0.775163 0.223901 -0.117168 -0.967543 
-0.28464 0.00330237 -0.774109 0.268471 -0.127376 -0.954829 
-0.281365 0.00285835 -0.772998 0.239971 -0.127455 -0.962377 
-0.277924 0.00246984 -0.772277 0.263897 -0.135382 -0.955003 
-0.273762 0.00197033 -0.770889 0.298765 -0.128166 -0.945681 
-0.269543 0.00141531 -0.769724 0.268268 -0.129748 -0.954567 
-0.264937 0.000860295 -0.768059 0.308605 -0.146086 -0.939905 
-0.261163 0.000360781 -0.766893 0.284184 -0.138733 -0.948679 
-0.257555 -8.32321e-05 -0.765839 0.260313 -0.131858 -0.956478 
-0.252949 -0.000638248 -0.764451 0.25544 -0.138856 -0.956802 
-0.248897 -0.00113776 -0.76323 0.268351 -0.126291 -0.955007 
-0.244679 -0.00163728 -0.762009 0.283816 -0.139382 -0.948694 
-0.240683 -0.00213679 -0.760677 0.300762 -0.16116 -0.939984 
-0.23602 -0.00274731 -0.759068 0.28203 -0.158611 -0.946204 
-0.232413 -0.00313582 -0.758124 0.270171 -0.153419 -0.95051 
-0.228972 -0.00357983 -0.757125 0.253264 -0.151036 -0.955534 
-0.225531 -0.00402385 -0.756126 0.269202 -0.158873 -0.949889 
-0.222145 -0.00446786 -0.754905 0.278326 -0.168584 -0.945576 
-0.218759 -0.00485637 -0.753961 0.268293 -0.152463 -0.951196 
-0.215374 -0.00530038 -0.753018 0.248496 -0.146112 -0.95755 
-0.211933 -0.0057444 -0.752019 0.362706 -0.190972 -0.912126 
-0.208492 -0.00613291 -0.750853 0.312631 -0.203572 -0.927804 
-0.205106 -0.00663242 -0.749743 0.253333 -0.20371 -0.945687 
-0.201443 -0.00713193 -0.748522 0.251706 -0.174863 -0.951875 
-0.196725 -0.00768695 -0.747246 0.219826 -0.157378 -0.962761 
-0.193118 -0.00818646 -0.745858 0.263705 -0.143789 -0.953826 
-0.189677 -0.00863048 -0.74497 0.326852 -0.138156 -0.934923 
-0.18618 -0.00907449 -0.74386 0.299913 -0.149595 -0.942164 
-0.182739 -0.0095185 -0.742861 0.242411 -0.176305 -0.95402 
-0.178465 -0.0100735 -0.741474 0.231157 -0.178096 -0.956477 
-0.174136 -0.010684 -0.739975 0.261256 -0.18967 -0.946452 
-0.17064 -0.0110725 -0.739143 0.255372 -0.249569 -0.934077 
-0.167199 -0.0115166 -0.738143 0.262968 -0.234482 -0.935877 
-0.163757 -0.0120161 -0.7367 0.31763 -0.184229 -0.930146 
-0.32671 0.0107396 -0.7831 0.143741 -0.033687 -0.989042 
-0.323324 0.0103511 -0.782323 0.140253 -0.0385065 -0.989367 
-0.319828 0.00996256 -0.781934 0.136631 -0.0580391 -0.98892 
-0.316165 0.00957405 -0.781324 0.144589 -0.0656293 -0.987313 
-0.311447 0.00913003 -0.780602 0.135605 -0.0616328 -0.988844 
-0.307784 0.00868602 -0.779936 0.17611 -0.0927828 -0.979988 
-0.304232 0.00829751 -0.778993 0.2314 -0.0915931 -0.968537 
-0.299403 0.00774249 -0.777827 0.202923 -0.0761616 -0.976228 
-0.293798 0.00713198 -0.776884 0.207788 -0.0864738 -0.974344 
-0.288303 0.00646596 -0.775552 0.244941 -0.086826 -0.965642 
-0.28414 0.00596644 -0.77422 0.277096 -0.0972117 -0.955912 
-0.280755 0.00552243 -0.773331 0.240441 -0.106844 -0.964765 
-0.277369 0.00518942 -0.772554 0.261054 -0.100515 -0.960077 
-0.274095 0.00468991 -0.771222 0.289717 -0.128067 -0.948506 
-0.270764 0.00430139 -0.770057 0.252281 -0.129594 -0.958937 
-0.267323 0.00391288 -0.769391 0.273074 -0.144319 -0.951106 
-0.264437 0.00352437 -0.768336 0.309763 -0.148671 -0.939119 
-0.261496 0.00313586 -0.767226 0.287986 -0.146457 -0.946369 
-0.2575 0.00263635 -0.766005 0.258612 -0.130898 -0.957071 
-0.253892 0.00224783 -0.765173 0.258311 -0.12703 -0.957674 
-0.250506 0.00185932 -0.764174 0.275258 -0.116809 -0.954248 
-0.246288 0.00130431 -0.762786 0.268242 -0.12013 -0.955832 
-0.24207 0.000804793 -0.761565 0.269944 -0.145267 -0.951855 
-0.237797 0.000305279 -0.760289 0.290804 -0.1634 -0.942727 
-0.232746 -0.00036074 -0.758457 0.28446 -0.13718 -0.948822 
-0.228528 -0.000860254 -0.75707 0.258704 -0.136396 -0.956279 
-0.224865 -0.00130427 -0.756126 0.269158 -0.136064 -0.953436 
-0.220203 -0.00185928 -0.754683 0.280639 -0.168058 -0.944986 
-0.216595 -0.0023588 -0.753517 0.264916 -0.148463 -0.952774 
-0.213209 -0.00274731 -0.752518 0.269599 -0.131487 -0.953954 
-0.209768 -0.00319132 -0.751353 0.321856 -0.240137 -0.915829 
-0.206383 -0.00363533 -0.750187 0.248001 -0.226703 -0.941861 
-0.202942 -0.00407935 -0.749299 0.278586 -0.180368 -0.943322 
-0.1995 -0.00446786 -0.748356 0.222533 -0.192041 -0.955824 
-0.196004 -0.00491187 -0.747357 0.266538 -0.161858 -0.950137 
-0.192618 -0.00535588 -0.746302 0.27247 -0.149088 -0.950544 
-0.189177 -0.0057999 -0.745248 0.294044 -0.219822 -0.93017 
-0.185736 -0.00624391 -0.744193 0.275798 -0.218109 -0.936143 
-0.182295 -0.00663242 -0.743194 0.246638 -0.207492 -0.946635 
-0.178854 -0.00713193 -0.742029 0.277145 -0.177703 -0.944252 
-0.175413 -0.00752045 -0.740919 0.254585 -0.177665 -0.95059 
-0.171916 -0.00801996 -0.739975 0.256134 -0.175798 -0.950521 
-0.168475 -0.00846397 -0.738809 0.298003 -0.166406 -0.939948 
-0.165034 -0.00890799 -0.737644 0.317376 -0.17281 -0.932421 
-0.161593 -0.0094075 -0.736367 0.315578 -0.164753 -0.934488 
-0.15854 -0.00979601 -0.735313 0.305467 -0.162883 -0.938168 
-0.155543 -0.0101845 -0.734314 0.316396 -0.230121 -0.920292 
-0.322492 0.0127931 -0.782212 0.144529 -0.0384534 -0.988753 
-0.318607 0.0123491 -0.781657 0.130298 -0.0489445 -0.990266 
-0.312502 0.0117941 -0.78088 0.150266 -0.0530453 -0.987221 
-0.308617 0.0114056 -0.780436 0.16841 -0.0680965 -0.983362 
-0.305231 0.0110171 -0.779714 0.220699 -0.0588843 -0.973563 
-0.301845 0.0106286 -0.778771 0.229865 -0.0669061 -0.97092 
-0.297627 0.0101291 -0.777827 0.191051 -0.0731737 -0.978849 
-0.294242 0.00974055 -0.776939 0.226067 -0.0856078 -0.970343 
-0.290912 0.00935204 -0.776051 0.239398 -0.0923163 -0.966523 
-0.285861 0.00874152 -0.774775 0.25168 -0.0752395 -0.964882 
