ply
format ascii 1.0
comment VCGLIB generated
element vertex 824
property float x
property float y
property float z
property float nx
property float ny
property float nz
element face 0
property list uchar int vertex_indices
end_header
-0.588377 -0.212098 0.729367 0.69386 0.107742 -0.712004 
-0.581631 -0.224211 0.727911 0.753176 0.653975 -0.0710105 
-0.577031 -0.235558 0.728984 0.673258 -0.396563 -0.624069 
-0.568521 -0.245601 0.723847 0.875482 -0.0354897 -0.481945 
-0.556254 -0.259708 0.716181 -0.950225 -0.10006 -0.295061 
-0.551807 -0.272051 0.718021 -0.0748036 -0.765628 -0.63892 
-0.554031 -0.283781 0.728754 0.0653987 0.714329 -0.696748 
-0.548357 -0.297274 0.729751 0.73866 0.505553 -0.445868 
-0.542454 -0.310768 0.730364 0.541555 0.347855 -0.765321 
-0.535707 -0.323878 0.729597 0.547364 0.323212 -0.771963 
-0.528731 -0.336988 0.728601 0.584002 0.376348 -0.719238 
-0.522137 -0.350174 0.728141 0.642592 0.441643 -0.62612 
-0.516004 -0.363438 0.728447 0.784536 0.329873 -0.52506 
-0.510331 -0.376931 0.729444 0.835258 0.257236 -0.485978 
-0.505961 -0.388891 0.731207 0.924897 0.109168 -0.364209 
-0.506037 -0.399701 0.738414 0.959029 0.115801 -0.258562 
-0.507877 -0.416108 0.751754 0.98007 -0.198058 -0.0153401 
-0.501898 -0.424618 0.749147 0.997946 -0.022764 -0.0598736 
-0.493234 -0.428988 0.740024 0.172061 0.297806 -0.938992 
-0.479281 -0.433511 0.723464 0.486422 -0.300501 0.820423 
-0.481428 -0.447311 0.735654 0.0735912 -0.239005 0.968226 
-0.470464 -0.451068 0.722621 0.563693 0.181399 0.805819 
-0.462721 -0.453598 0.713421 0.507505 0.198036 0.838582 
-0.530647 -0.499521 0.83785 0.525001 -0.337704 -0.781236 
-0.529881 -0.511634 0.84475 0.504852 -0.317129 -0.802841 
-0.527964 -0.523441 0.84981 0.513702 -0.251251 -0.820355 
-0.525664 -0.535094 0.854027 0.529063 -0.310013 -0.789927 
-0.524821 -0.547514 0.860927 0.482982 -0.309655 -0.81905 
-0.522981 -0.559551 0.866064 0.500167 -0.279788 -0.819482 
-0.521601 -0.570131 0.87097 0.482384 -0.325118 -0.81339 
-0.520067 -0.583701 0.877564 0.392596 -0.347785 -0.851419 
-0.518687 -0.596504 0.884004 0.443478 -0.255554 -0.85908 
-0.517537 -0.609154 0.890444 0.45707 -0.422999 -0.782406 
-0.516617 -0.621957 0.89742 0.422897 -0.340116 -0.839928 
-0.515544 -0.634761 0.904244 0.415794 -0.397024 -0.818222 
-0.514547 -0.647794 0.911374 0.547058 -0.332306 -0.76831 
-0.670257 0.146318 0.631617 0.8802 0.385956 0.276199 
-0.668341 0.133361 0.637367 0.94198 0.196046 0.272469 
-0.667344 0.120328 0.644421 0.997523 0.0640643 0.0290572 
-0.666271 0.107295 0.651397 0.999343 -0.0356387 -0.00659309 
-0.665887 0.0941082 0.659371 0.988167 -0.151912 -0.0211751 
-0.666194 0.0809216 0.668417 0.9946 -0.0876765 -0.0555372 
-0.666424 0.0675049 0.677541 0.997545 0.0145679 -0.0684981 
-0.665734 0.0540116 0.685284 0.996878 -0.066222 -0.0429911 
-0.666577 0.0405183 0.695251 0.992692 -0.102476 -0.0637269 
-0.666807 0.0269483 0.704451 0.98145 -0.0956045 -0.166178 
-0.666501 0.0133017 0.712807 0.955814 -0.176304 -0.235238 
-0.666577 -0.000498307 0.721854 0.982015 -0.0809185 -0.170581 
-0.665657 -0.0143749 0.729597 0.917139 -0.188053 -0.351414 
-0.665504 -0.0270249 0.737417 0.853947 -0.199047 -0.480786 
-0.662284 -0.0421282 0.742784 0.618002 0.0716722 -0.782902 
-0.656611 -0.0561582 0.74401 0.549624 0.0582024 -0.833382 
-0.650707 -0.0699582 0.744701 0.489963 0.106636 -0.865197 
-0.644191 -0.0836815 0.744547 0.435538 0.220984 -0.872624 
-0.637061 -0.0972515 0.743397 0.303136 0.165247 -0.938511 
-0.630391 -0.110898 0.743014 0.319616 0.202192 -0.925724 
-0.623567 -0.123931 0.741864 0.373597 0.436287 -0.818584 
-0.615671 -0.137885 0.739871 0.354893 0.183255 -0.916771 
-0.609077 -0.151378 0.739411 0.508479 0.207375 -0.83573 
-0.603251 -0.163491 0.739104 0.579086 0.257432 -0.773555 
-0.595047 -0.177981 0.737034 0.498038 0.275547 -0.822212 
-0.588914 -0.191705 0.737494 0.537156 0.223061 -0.813454 
-0.583624 -0.205811 0.739257 0.655068 0.286481 -0.699153 
-0.577491 -0.218768 0.739181 0.730858 0.264375 -0.629248 
-0.569057 -0.235251 0.73826 0.445767 0.10966 -0.888407 
-0.555564 -0.261701 0.736804 0.519001 0.181732 -0.835232 
-0.545291 -0.281481 0.735347 0.176358 -0.54841 -0.817401 
-0.540691 -0.295204 0.737877 0.501452 0.417918 -0.757556 
-0.533867 -0.308391 0.737034 0.680841 0.424976 -0.596533 
-0.527274 -0.321578 0.736421 0.630787 0.297078 -0.716835 
-0.521601 -0.335071 0.737417 0.712451 0.301563 -0.633619 
-0.514854 -0.348181 0.736574 0.773836 0.327505 -0.542142 
-0.509871 -0.361828 0.738721 0.822652 0.328597 -0.46397 
-0.506344 -0.372178 0.740561 0.899633 0.190863 -0.392723 
-0.503431 -0.384751 0.744701 0.876754 0.130065 -0.463019 
-0.497681 -0.403074 0.748764 0.870359 -0.422169 0.253472 
-0.489401 -0.413501 0.743857 0.333031 -0.408409 0.849878 
-0.475984 -0.417258 0.727451 0.444521 -0.351399 0.823966 
-0.475524 -0.432131 0.736727 0.208519 -0.303812 0.929633 
-0.463564 -0.437191 0.723081 0.733821 0.0716316 0.675556 
-0.454364 -0.441101 0.712501 0.702443 0.072052 0.708084 
-0.448001 -0.444244 0.705371 -0.567681 -0.785565 -0.246225 
-0.522521 -0.497067 0.84475 0.570409 -0.250004 -0.782389 
-0.519914 -0.510561 0.849964 0.494314 -0.246349 -0.833647 
-0.517461 -0.526277 0.856787 0.515743 -0.250122 -0.81942 
-0.515851 -0.540384 0.86361 0.458973 -0.316274 -0.83025 
-0.514087 -0.552421 0.868977 0.47443 -0.384346 -0.791956 
-0.512324 -0.564841 0.87442 0.494736 -0.288339 -0.819815 
-0.510637 -0.580557 0.882164 0.471489 -0.323686 -0.82032 
-0.509181 -0.593284 0.888297 0.492784 -0.361557 -0.79148 
-0.507954 -0.605857 0.894737 0.482259 -0.360741 -0.798306 
-0.506804 -0.618507 0.901254 0.516309 -0.337177 -0.787234 
-0.505577 -0.631234 0.907847 0.531553 -0.388004 -0.75293 
-0.504734 -0.644267 0.915054 0.417321 -0.379285 -0.825824 
-0.503891 -0.657377 0.922337 0.568738 -0.426846 -0.703093 
-0.503277 -0.666194 0.927244 0.546265 -0.396044 -0.738068 
-0.689501 0.133975 0.688734 0.772517 0.484686 0.41024 
-0.683291 0.120405 0.688734 0.835649 0.386073 0.39069 
-0.678384 0.106912 0.690497 0.877914 0.335433 0.34169 
-0.675394 0.0934949 0.695021 0.886076 0.30765 0.34673 
-0.673554 0.0800016 0.701154 0.933257 0.240605 0.266722 
-0.672021 0.0665849 0.707747 0.97231 0.177878 0.151566 
-0.671331 0.0530149 0.715491 0.948855 0.135815 0.285007 
-0.671254 0.0445816 0.720934 0.946466 0.146458 0.287667 
-0.667574 0.0238817 0.729137 0.960288 0.146602 0.23739 
-0.659294 -0.0139916 0.742094 0.983773 0.103869 -0.146295 
-0.652777 -0.0399816 0.749684 0.514677 0.12854 -0.847694 
-0.647487 -0.0537816 0.751217 0.501124 0.317671 -0.804959 
-0.641124 -0.0674282 0.751064 0.40712 0.255444 -0.876927 
-0.634454 -0.0811515 0.750604 0.431721 0.201577 -0.879195 
-0.627171 -0.0947215 0.749147 0.491239 0.231277 -0.839759 
-0.620501 -0.108291 0.748534 0.447425 0.0977097 -0.888968 
-0.614291 -0.121325 0.748304 0.454079 0.256738 -0.853169 
-0.607237 -0.135355 0.747384 0.621741 0.28869 -0.728077 
-0.600414 -0.148848 0.74654 0.670254 0.152464 -0.726302 
-0.594511 -0.162418 0.747077 0.53541 0.268793 -0.800679 
-0.587534 -0.175758 0.745927 0.504492 0.0704922 -0.860534 
-0.582397 -0.189405 0.747537 0.536876 0.308797 -0.785117 
-0.575804 -0.202745 0.747001 0.663285 -0.00586342 -0.748344 
-0.569594 -0.216161 0.747077 0.30211 -0.953229 0.0091414 
-0.562464 -0.229348 0.745621 -0.191466 0.97012 -0.149021 
-0.549967 -0.255951 0.74539 0.183578 0.118408 -0.975848 
-0.542991 -0.267221 0.742937 0.00434238 -0.37856 -0.925567 
-0.533867 -0.275961 0.735884 0.886946 0.0729619 -0.456073 
-0.534481 -0.289224 0.74539 0.511655 0.436416 -0.740101 
-0.528347 -0.302564 0.745544 0.592107 0.356326 -0.722801 
-0.521677 -0.315751 0.744777 0.69655 0.212329 -0.685372 
-0.516464 -0.329321 0.746387 0.697559 0.382853 -0.605669 
-0.510024 -0.342508 0.745927 0.791561 0.354049 -0.498076 
-0.507187 -0.355004 0.750144 0.85957 0.213868 -0.464113 
-0.503891 -0.368344 0.754284 0.739683 0.319786 -0.59212 
-0.496378 -0.388891 0.757274 -0.0460657 -0.940302 -0.337208 
-0.486334 -0.399241 0.749837 0.524537 -0.324302 0.787203 
-0.474911 -0.406601 0.738414 0.121066 -0.0931403 0.988265 
-0.472228 -0.418561 0.742477 -0.052048 -0.531538 0.845434 
-0.519837 -0.457201 0.834477 0.550593 -0.146804 -0.821764 
-0.517154 -0.470388 0.839384 0.6292 -0.145906 -0.763426 
-0.515467 -0.482041 0.84475 0.614176 -0.170383 -0.770557 
-0.513244 -0.493541 0.84912 0.590305 -0.248057 -0.76812 
-0.511711 -0.505424 0.854717 0.567971 -0.197077 -0.799105 
-0.509487 -0.516924 0.859164 0.480068 -0.326766 -0.8141 
-0.507264 -0.528577 0.86361 0.570427 -0.258362 -0.779655 
-0.505961 -0.540767 0.869667 0.56178 -0.213451 -0.799276 
-0.504504 -0.552881 0.875417 0.423736 -0.364307 -0.829294 
-0.502971 -0.564994 0.880937 0.482331 -0.353673 -0.801419 
-0.501591 -0.577261 0.88684 0.572714 -0.264643 -0.775863 
-0.499981 -0.589527 0.892514 0.560209 -0.234582 -0.794441 
-0.498754 -0.602024 0.8988 0.490126 -0.352122 -0.797362 
-0.497221 -0.614444 0.904704 0.504264 -0.376927 -0.776945 
-0.496378 -0.627401 0.91191 0.453466 -0.352916 -0.818424 
-0.495611 -0.640357 0.919194 0.568324 -0.341017 -0.74881 
-0.494614 -0.653391 0.92617 0.561492 -0.528076 -0.637074 
-0.494001 -0.666731 0.933914 0.517855 -0.400353 -0.756005 
-0.784567 0.163568 0.825277 -0.274957 0.522182 -0.807295 
-0.77575 0.155978 0.81761 -0.251321 0.534896 -0.806674 
-0.765554 0.146701 0.808947 -0.209257 0.640249 -0.739116 
-0.70905 0.120711 0.745927 0.601497 0.24485 0.760427 
-0.719324 0.109212 0.767624 0.338471 0.109189 0.93462 
-0.718404 0.0977115 0.773604 0.302311 0.0977537 0.948184 
-0.711427 0.0865182 0.770997 0.740868 0.667788 -0.0719276 
-0.650554 -0.0233449 0.756124 0.500945 0.3125 -0.807092 
-0.645341 -0.0370682 0.75758 0.520558 0.165525 -0.837628 
-0.638594 -0.0507916 0.756967 0.466284 0.207737 -0.859898 
-0.632461 -0.0644382 0.757121 0.500639 0.229987 -0.834546 
-0.625791 -0.0780848 0.756507 0.513106 0.169757 -0.84137 
-0.619044 -0.0917315 0.755741 0.510282 0.23788 -0.826454 
-0.611991 -0.105225 0.754437 0.623542 0.268053 -0.734399 
-0.605014 -0.119331 0.75367 0.512543 0.191878 -0.836949 
-0.599417 -0.132365 0.754207 0.561353 0.534236 -0.63204 
-0.593437 -0.145935 0.754437 0.614451 0.350513 -0.706817 
-0.587227 -0.159505 0.754437 0.589765 0.366867 -0.719434 
-0.580634 -0.172845 0.753824 0.655474 0.222711 -0.721633 
-0.574807 -0.186338 0.754284 0.651381 0.309394 -0.692804 
-0.568597 -0.198221 0.753211 0.644421 0.214596 -0.733941 
-0.560011 -0.213171 0.75091 0.693718 -0.100313 -0.713227 
-0.552574 -0.228888 0.750604 0.600548 -0.393783 -0.6959 
-0.540537 -0.256028 0.751217 0.535062 -0.092503 -0.839733 
-0.534174 -0.269291 0.750987 0.735904 -0.138279 -0.662816 
-0.528961 -0.282785 0.752444 0.669758 0.395481 -0.628505 
-0.522981 -0.296124 0.752674 0.754089 0.323889 -0.571355 
-0.517384 -0.309618 0.753594 0.727662 0.412435 -0.548093 
-0.512477 -0.323341 0.75551 0.765393 0.166015 -0.621782 
-0.506957 -0.336834 0.756584 0.671484 0.430839 -0.602898 
-0.499674 -0.354391 0.757734 0.460704 0.181092 -0.868883 
-0.487178 -0.375014 0.753517 0.361971 -0.416563 0.833938 
-0.476444 -0.387511 0.746387 0.399979 -0.365175 0.840633 
-0.465174 -0.394181 0.734657 0.016141 -0.298328 0.954327 
-0.464791 -0.406218 0.742017 0.121066 -0.0931403 0.988265 
-0.513934 -0.446161 0.837544 0.613982 -0.0780667 -0.78545 
-0.510791 -0.459118 0.841684 0.58342 -0.141759 -0.799704 
-0.509487 -0.470924 0.847587 0.621402 -0.198845 -0.757839 
-0.506957 -0.482194 0.85142 0.602431 -0.228966 -0.764625 
-0.505041 -0.493847 0.85625 0.595185 -0.236429 -0.768021 
-0.502664 -0.505271 0.860314 0.593452 -0.172478 -0.786172 
-0.500134 -0.516694 0.864224 0.569126 -0.147415 -0.808928 
-0.499138 -0.528884 0.870664 0.540161 -0.245487 -0.804961 
-0.497221 -0.540691 0.87557 0.53653 -0.235575 -0.810333 
-0.495458 -0.553034 0.88109 0.565717 -0.277905 -0.776359 
-0.493618 -0.568597 0.88845 0.518251 -0.359285 -0.7761 
-0.492161 -0.581247 0.89443 0.497608 -0.333355 -0.800787 
-0.490781 -0.593591 0.90041 0.50225 -0.342259 -0.794106 
-0.489248 -0.606011 0.906314 0.570654 -0.366367 -0.734935 
-0.488174 -0.618661 0.912907 0.464624 -0.3332 -0.820428 
-0.487178 -0.631464 0.91973 0.477654 -0.450168 -0.754451 
-0.486334 -0.644497 0.926937 0.478325 -0.346262 -0.807036 
-0.485568 -0.657684 0.934374 0.569757 -0.497377 -0.654212 
-0.485491 -0.671331 0.943037 0.471182 -0.522145 -0.710882 
-0.485491 -0.680531 0.94894 0.622398 -0.413242 -0.664719 
-0.777897 0.173151 0.83026 -0.178141 0.576723 -0.797281 
-0.767854 0.163798 0.821827 -0.189774 0.530721 -0.826027 
-0.756277 0.152681 0.812397 -0.105201 0.542264 -0.833596 
-0.74907 0.145398 0.806724 -0.0512731 0.572818 -0.818077 
-0.681527 0.127995 0.721777 0.906778 0.296578 -0.299658 
-0.684594 0.118181 0.732511 0.412235 0.742153 0.528461 
-0.685207 0.109825 0.738874 0.624427 0.203086 0.75422 
-0.624104 0.00624834 0.718634 0.945764 -0.324091 0.0222764 
-0.629701 -0.000881634 0.731131 0.631225 -0.688099 0.357876 
-0.643577 -0.00494497 0.753517 -0.726997 0.429866 -0.535434 
-0.647257 -0.0138383 0.76448 0.888023 -0.0922809 -0.450444 
-0.640434 -0.0274849 0.763637 0.646809 0.213941 -0.732029 
-0.633994 -0.0411316 0.76333 0.562967 0.25078 -0.787514 
-0.627554 -0.0548549 0.762947 0.454216 0.230904 -0.860448 
-0.621191 -0.0685015 0.762717 0.502018 0.227766 -0.834326 
-0.614751 -0.0820715 0.762334 0.518118 0.401859 -0.755026 
-0.608081 -0.0956415 0.761491 0.597883 0.242846 -0.763913 
-0.602637 -0.107831 0.76172 0.662515 0.266459 -0.700053 
-0.596504 -0.120865 0.76126 0.748262 0.21338 -0.628151 
-0.591061 -0.132978 0.761414 0.769794 0.310822 -0.5575 
-0.585464 -0.146548 0.762257 0.745962 0.336441 -0.574759 
-0.578717 -0.159965 0.76126 0.766999 0.19557 -0.611118 
-0.573427 -0.171695 0.761337 0.610847 0.0698958 -0.788658 
-0.567754 -0.184038 0.76126 0.652715 0.346934 -0.673498 
-0.562464 -0.195155 0.760954 0.247095 0.89832 -0.36327 
-0.556561 -0.206731 0.760111 -0.0877491 0.801579 -0.591415 
-0.549201 -0.219765 0.758117 0.198971 0.822248 -0.533215 
-0.536551 -0.246291 0.757427 0.342594 0.441592 -0.829232 
-0.530724 -0.259708 0.75781 0.0844308 0.721336 -0.68742 
-0.525281 -0.273125 0.758807 0.405629 0.258093 -0.876843 
-0.519531 -0.286541 0.75942 0.569517 0.256603 -0.7809 
-0.513934 -0.299958 0.760187 0.626288 0.200932 -0.753253 
-0.509257 -0.313758 0.762487 0.803221 0.307078 -0.51043 
-0.506421 -0.324261 0.765324 0.775731 0.25653 -0.57657 
-0.498831 -0.338904 0.764097 0.555876 0.434099 -0.708915 
-0.484648 -0.360831 0.758117 -0.225898 -0.402432 0.887141 
-0.473301 -0.374094 0.750604 0.5334 -0.342342 0.77349 
-0.462568 -0.378694 0.737954 0.622857 0.0516792 0.780627 
-0.457814 -0.392494 0.740254 -0.353902 0.12228 0.927255 
-0.508337 -0.433204 0.838847 0.601589 -0.0503051 -0.79722 
-0.506344 -0.444628 0.843524 0.6154 -0.0770929 -0.784436 
-0.502741 -0.455361 0.845364 0.606322 -0.0702299 -0.792112 
-0.501591 -0.467168 0.851497 0.624969 -0.226788 -0.746981 
-0.499214 -0.478514 0.855484 0.643898 -0.207046 -0.736564 
-0.497144 -0.490091 0.86016 0.582417 -0.158019 -0.797384 
-0.495228 -0.501667 0.864837 0.568045 -0.259336 -0.781069 
-0.493158 -0.513244 0.869514 0.627652 -0.142292 -0.765379 
-0.491164 -0.524974 0.87419 0.482553 -0.222291 -0.847189 
-0.489554 -0.536934 0.879557 0.487808 -0.33546 -0.805922 
-0.488328 -0.547514 0.884694 0.616877 -0.191246 -0.763471 
-0.486641 -0.560777 0.890674 0.58983 -0.286859 -0.75486 
-0.484954 -0.573274 0.896424 0.590437 -0.262372 -0.763246 
-0.483344 -0.585387 0.90179 0.535585 -0.326344 -0.778876 
-0.482118 -0.597884 0.908154 0.488997 -0.339901 -0.803336 
-0.480661 -0.610304 0.914057 0.568553 -0.292642 -0.768835 
-0.479588 -0.623031 0.920727 0.61933 -0.304742 -0.723576 
-0.478591 -0.635911 0.927627 0.487716 -0.32505 -0.810232 
-0.477671 -0.648867 0.934757 0.554797 -0.375873 -0.742239 
-0.477211 -0.662207 0.942654 0.540665 -0.429204 -0.723509 
-0.477518 -0.673784 0.950627 0.543904 -0.520433 -0.658269 
-0.477978 -0.683291 0.957373 0.586651 -0.437453 -0.681524 
-0.760877 0.172768 0.826427 -0.207362 0.541652 -0.814625 
-0.74976 0.161651 0.81761 -0.0759694 0.542564 -0.836572 
-0.74125 0.152528 0.811247 -0.0169908 0.527627 -0.849307 
-0.659601 0.127535 0.709971 0.418192 0.465625 0.779942 
-0.662514 0.116035 0.721624 0.706396 0.435203 0.558214 
-0.661671 0.104382 0.728064 0.672349 0.414115 0.61356 
-0.655844 0.0908115 0.728371 0.208813 -0.111822 0.971542 
-0.649481 0.0780849 0.727451 -0.151615 -0.138089 0.978746 
-0.638211 0.0595316 0.723234 0.186186 -0.0494588 0.981269 
-0.631234 0.0485683 0.720321 -0.273977 0.00231008 0.961733 
-0.624104 0.036915 0.717561 -0.288163 -0.130867 0.948597 
-0.616591 0.0252617 0.714341 0.539655 0.0680939 0.839128 
-0.610074 0.0170583 0.710201 0.664507 -0.0245394 0.746879 
-0.618047 0.0116917 0.725227 0.81276 -0.2032 0.546014 
-0.637751 0.00747502 0.7562 0.00315245 0.99101 -0.133753 
-0.644114 -0.0014183 0.771227 0.398351 0.255359 -0.88097 
-0.637521 -0.0151416 0.770614 0.517971 0.274832 -0.810046 
-0.631234 -0.0288649 0.77046 0.499553 0.301832 -0.812 
-0.624411 -0.0424349 0.769464 0.447087 0.443457 -0.776827 
-0.618047 -0.0560815 0.769157 0.469459 0.0598385 -0.880924 
-0.611454 -0.0697282 0.768467 0.355319 0.503141 -0.78778 
-0.605627 -0.0833748 0.768774 0.640442 0.234918 -0.731196 
-0.599877 -0.0969448 0.769387 0.662623 0.134976 -0.73669 
-0.593591 -0.111128 0.769464 0.626257 0.256953 -0.736055 
-0.587457 -0.124085 0.768927 0.638543 0.171572 -0.750217 
-0.582244 -0.137731 0.77023 0.618952 0.351907 -0.702182 
-0.576034 -0.151225 0.770077 0.58714 0.189395 -0.787017 
-0.569441 -0.162725 0.768084 0.465789 0.401482 -0.788576 
-0.564841 -0.173075 0.768237 0.699951 0.258688 -0.665694 
-0.559474 -0.186031 0.769004 0.480398 0.474443 -0.737646 
-0.553647 -0.196458 0.767394 0.718262 -0.0184919 -0.695527 
-0.547437 -0.207191 0.765477 0.443708 -0.203143 -0.872844 
-0.540307 -0.220761 0.76402 0.659177 -0.540977 -0.522331 
-0.531184 -0.240695 0.763867 0.178041 0.514551 -0.838772 
-0.524207 -0.257408 0.764787 0.553397 0.413223 -0.723187 
-0.519071 -0.270978 0.76632 0.743219 0.329063 -0.582531 
-0.514317 -0.284625 0.768314 0.713092 0.337124 -0.614693 
-0.508721 -0.296201 0.767854 0.850184 0.179869 -0.494808 
-0.506344 -0.306781 0.771457 0.786857 0.152048 -0.598111 
-0.499444 -0.323571 0.77253 0.559928 0.26757 -0.784147 
-0.485338 -0.345574 0.76655 0.0530546 -0.225223 0.972862 
-0.473608 -0.358761 0.75827 0.568841 -0.319425 0.757884 
-0.465174 -0.363361 0.748917 0.681789 -0.285893 0.673372 
-0.456051 -0.365661 0.737111 0.715819 -0.154363 0.681011 
-0.449151 -0.366888 0.727911 0.697182 -0.215751 0.683658 
-0.505501 -0.408058 0.836087 0.594669 -0.0935753 -0.798506 
-0.503891 -0.419481 0.8413 0.737704 -0.0641114 -0.672073 
-0.501361 -0.430598 0.844827 0.663596 -0.0472993 -0.746594 
-0.498831 -0.441791 0.84843 0.649982 -0.0799059 -0.755737 
-0.496224 -0.452908 0.851957 0.69089 -0.102787 -0.715616 
-0.494614 -0.464561 0.857247 0.690281 -0.204074 -0.694166 
-0.492314 -0.475908 0.86131 0.674633 -0.165579 -0.719343 
-0.490398 -0.487484 0.86614 0.645065 -0.123553 -0.754073 
-0.487868 -0.498831 0.86982 0.599848 -0.161506 -0.783644 
-0.485721 -0.510407 0.87419 0.558906 -0.19892 -0.805019 
-0.483498 -0.521907 0.878484 0.561298 -0.189477 -0.805632 
-0.481888 -0.533791 0.883697 0.55797 -0.29655 -0.775067 
-0.480354 -0.544217 0.88822 0.515969 -0.273772 -0.81168 
-0.478974 -0.557634 0.89489 0.543922 -0.312428 -0.778805 
-0.477748 -0.570284 0.901254 0.668282 -0.221996 -0.710012 
-0.476138 -0.582474 0.906697 0.694855 -0.241431 -0.677412 
-0.474604 -0.594741 0.912447 0.561616 -0.28022 -0.778501 
-0.473301 -0.607237 0.918657 0.654897 -0.32433 -0.682584 
-0.472304 -0.619964 0.925404 0.627449 -0.256592 -0.735166 
-0.471154 -0.632691 0.93192 0.591254 -0.31412 -0.742797 
-0.470388 -0.645724 0.93928 0.568721 -0.400782 -0.718283 
-0.470004 -0.656841 0.945873 0.689164 -0.390082 -0.610646 
-0.470158 -0.666117 0.95216 0.736568 -0.423032 -0.527741 
-0.470464 -0.675394 0.958523 0.672909 -0.483664 -0.559698 
-0.74861 0.177291 0.826964 -0.0800035 0.549501 -0.831654 
-0.738644 0.166328 0.819604 0.043606 0.386347 -0.921322 
-0.730594 0.157205 0.813777 0.043891 0.491262 -0.869905 
-0.637367 0.134818 0.693181 0.00944739 -0.719249 0.694688 
-0.636294 0.121708 0.700081 0.277315 -0.153933 0.948368 
-0.636601 0.110208 0.707977 0.399392 0.405324 0.822313 
-0.636141 0.0986315 0.714724 0.417332 0.427699 0.801815 
-0.628781 0.0852149 0.712731 0.398602 0.335502 0.853554 
-0.621497 0.0718749 0.710814 0.141395 0.0964695 0.985242 
-0.613677 0.0586116 0.708131 -0.134217 0.216093 0.967104 
-0.606931 0.0469583 0.705907 0.540176 -0.202843 0.81674 
-0.600184 0.0354583 0.703531 0.281158 -0.140133 0.949375 
-0.595047 0.0271783 0.701384 0.6462 -0.447799 0.617982 
-0.640051 0.0103117 0.777514 0.411492 0.289497 -0.864214 
-0.633764 -0.00341164 0.777284 0.568295 0.221802 -0.792367 
-0.626864 -0.0170583 0.776134 0.54671 0.30921 -0.778138 
-0.620884 -0.0307049 0.776364 0.561128 0.303086 -0.770243 
-0.614444 -0.0443516 0.775827 0.601794 0.28841 -0.744757 
-0.608157 -0.0579982 0.77552 0.660417 0.337912 -0.67057 
-0.601717 -0.0714915 0.774907 0.669398 0.354089 -0.65309 
-0.596657 -0.0852148 0.776364 0.646469 0.319424 -0.692854 
-0.592057 -0.0971748 0.777437 0.628045 0.130067 -0.76723 
-0.585771 -0.109518 0.776287 0.639209 0.208941 -0.740105 
-0.580787 -0.122628 0.777514 0.708713 0.188223 -0.679925 
-0.574501 -0.136121 0.77713 0.621004 0.38654 -0.681866 
-0.568291 -0.149538 0.776824 0.64239 0.309073 -0.701292 
-0.561467 -0.162801 0.775674 0.668865 0.0726404 -0.739827 
-0.555334 -0.176218 0.77552 0.50639 0.23623 -0.829316 
-0.549431 -0.187871 0.774447 0.59389 0.511304 -0.621179 
-0.542914 -0.199295 0.77253 0.610175 0.609765 -0.505839 
-0.538237 -0.208341 0.77161 0.676319 -0.273935 -0.683777 
-0.531797 -0.220608 0.770384 0.72333 -0.528256 -0.444679 
-0.522597 -0.239545 0.76931 -0.0160793 0.965449 -0.260097 
-0.516541 -0.255568 0.770997 0.270507 0.811694 -0.517667 
-0.512861 -0.269521 0.774754 0.810839 0.223927 -0.540737 
-0.507877 -0.283091 0.77644 0.828746 0.34793 -0.438321 
-0.504811 -0.293518 0.77874 0.554891 0.391532 -0.734029 
-0.499367 -0.308851 0.78081 0.60717 0.216134 -0.764611 
-0.484954 -0.330778 0.77437 0.154969 -0.387452 0.908771 
-0.471614 -0.343428 0.763177 0.749672 -0.440609 0.493818 
-0.460804 -0.347184 0.749837 0.678718 -0.218324 0.701197 
-0.450224 -0.350941 0.736651 0.828524 -0.257255 0.497361 
-0.503201 -0.388124 0.837927 0.674556 -0.00284483 -0.738218 
-0.500288 -0.398934 0.840687 0.660874 0.0684489 -0.747369 
-0.498448 -0.410281 0.845364 0.640496 0.0218513 -0.76765 
-0.495918 -0.421398 0.849044 0.6249 -0.0194379 -0.780463 
-0.493848 -0.432744 0.853414 0.63584 -0.0376843 -0.7709 
-0.491088 -0.443784 0.85648 0.696997 -0.0920964 -0.711135 
-0.489094 -0.455208 0.86108 0.729903 -0.199139 -0.653901 
-0.486794 -0.466554 0.865067 0.667346 -0.105829 -0.73719 
-0.484724 -0.478054 0.86959 0.635799 -0.14636 -0.757851 
-0.482194 -0.489324 0.873194 0.572832 -0.100019 -0.813547 
-0.479358 -0.500517 0.87626 0.621177 -0.151816 -0.768824 
-0.477441 -0.512171 0.880937 0.61688 -0.194784 -0.762573 
-0.475294 -0.523747 0.885307 0.665971 -0.192372 -0.720746 
-0.473838 -0.536014 0.891057 0.647709 -0.260775 -0.71587 
-0.472151 -0.549201 0.89719 0.631112 -0.235132 -0.739196 
-0.471461 -0.560164 0.903094 0.620374 -0.358769 -0.697439 
-0.469851 -0.572277 0.908537 0.583329 -0.285813 -0.760288 
-0.468394 -0.584544 0.914287 0.60838 -0.243443 -0.755386 
-0.466784 -0.596811 0.919884 0.685256 -0.297474 -0.664781 
-0.465634 -0.609384 0.926324 0.627477 -0.291895 -0.721851 
-0.464561 -0.622034 0.932917 0.662623 -0.24881 -0.706416 
-0.463718 -0.634991 0.940047 0.698219 -0.258974 -0.6674 
-0.463104 -0.648101 0.947713 0.689902 -0.424449 -0.586411 
-0.463181 -0.659524 0.95515 0.639448 -0.457075 -0.618214 
-0.463411 -0.668877 0.961513 0.64738 -0.458536 -0.608805 
-0.733047 0.178441 0.826044 0.113182 0.554243 -0.824624 
-0.72377 0.167478 0.81945 0.0299138 0.528216 -0.848583 
-0.716487 0.158431 0.81462 0.0803732 0.507078 -0.858145 
-0.613524 0.135661 0.679074 0.191729 -0.852483 0.486325 
-0.611761 0.122705 0.684977 0.511769 0.435325 0.740665 
-0.608464 0.109672 0.688504 0.446042 0.524976 0.724878 
-0.603174 0.0964849 0.689271 0.899405 0.426192 -0.0971178 
-0.596734 0.0833749 0.688351 0.871739 0.36276 0.329358 
-0.590447 0.0702649 0.687737 0.74066 0.273815 0.613554 
-0.584161 0.0571549 0.686971 0.438084 0.358096 0.82453 
-0.578411 0.0440449 0.686971 0.376269 0.378639 0.845609 
-0.630391 0.0119983 0.783417 0.517385 0.263254 -0.814254 
-0.624334 -0.0016483 0.783417 0.622056 0.271624 -0.734348 
-0.618047 -0.015295 0.783187 0.59539 0.362322 -0.7171 
-0.611531 -0.0289416 0.78242 0.547596 0.335459 -0.766555 
-0.605704 -0.0425882 0.78265 0.642671 0.306427 -0.702195 
-0.600031 -0.0562349 0.783187 0.672754 0.321397 -0.666413 
-0.593897 -0.0698049 0.783034 0.643558 0.37064 -0.669671 
-0.588761 -0.0835282 0.784337 0.632763 0.251728 -0.732287 
-0.583624 -0.0957181 0.784644 0.648269 0.18832 -0.737755 
-0.577337 -0.110515 0.785027 0.679986 0.0657138 -0.730275 
-0.571051 -0.124161 0.784644 0.648552 0.195532 -0.735628 
-0.566067 -0.136351 0.78518 0.681569 0.259661 -0.684134 
-0.559857 -0.149155 0.784337 0.712831 0.300375 -0.633757 
-0.553647 -0.161038 0.783034 0.694427 0.118407 -0.709755 
-0.546901 -0.174915 0.782344 0.589403 0.52081 -0.617544 
-0.541687 -0.185955 0.781807 0.710089 0.359133 -0.605638 
-0.534404 -0.197838 0.77897 0.660857 0.182609 -0.727957 
-0.526431 -0.214705 0.77828 0.709966 0.203619 -0.674157 
-0.516157 -0.237015 0.777897 0.864989 0.375724 -0.332605 
-0.509257 -0.255338 0.77966 0.938772 0.209746 -0.273337 
-0.506574 -0.267911 0.783954 0.832305 0.346135 -0.432965 
-0.504351 -0.276728 0.78656 0.457471 0.35827 -0.813857 
-0.496454 -0.290298 0.7838 0.568688 0.261482 -0.779885 
-0.479741 -0.313374 0.774447 0.45266 -0.250308 0.85583 
-0.466401 -0.327021 0.763867 0.685494 -0.317341 0.655281 
-0.456971 -0.331314 0.752597 0.688936 -0.297494 0.660958 
-0.445624 -0.334918 0.738337 0.530649 -0.3592 0.767716 
-0.500057 -0.373864 0.843217 0.625088 -0.278262 -0.729271 
-0.495841 -0.388201 0.84636 0.731175 0.0729422 -0.67828 
-0.492008 -0.400698 0.848967 0.739073 0.0514317 -0.671659 
-0.490781 -0.412274 0.85464 0.676996 0.0368318 -0.735065 
-0.488098 -0.423391 0.857937 0.704979 -0.00612249 -0.709202 
-0.484954 -0.434201 0.860314 0.69619 -0.0437533 -0.716523 
-0.482961 -0.445548 0.864837 0.736453 -0.131517 -0.663581 
-0.481044 -0.457048 0.869514 0.692811 -0.111026 -0.712521 
-0.477978 -0.468011 0.872044 0.654677 -0.125421 -0.745431 
-0.475831 -0.479434 0.87626 0.636124 -0.0945768 -0.765769 
-0.473608 -0.490934 0.8804 0.624246 -0.0611484 -0.778831 
-0.471461 -0.502434 0.884694 0.67025 -0.199689 -0.714766 
-0.469698 -0.514087 0.8896 0.647382 -0.215376 -0.731101 
-0.467628 -0.525741 0.89397 0.573352 -0.20114 -0.794236 
-0.466554 -0.536397 0.899184 0.701753 -0.19564 -0.685031 
-0.464944 -0.549584 0.905394 0.696792 -0.287299 -0.657222 
-0.463181 -0.561927 0.910607 0.492487 -0.23851 -0.837 
-0.461724 -0.574117 0.916127 0.570353 -0.377547 -0.72949 
-0.460268 -0.586384 0.921954 0.681556 -0.220499 -0.697754 
-0.459041 -0.598881 0.92824 0.663021 -0.276212 -0.695781 
-0.457891 -0.611454 0.93468 0.678274 -0.354955 -0.64339 
-0.457048 -0.624334 0.94181 0.608274 -0.343055 -0.715763 
-0.456204 -0.637291 0.94894 0.684046 -0.296374 -0.666516 
-0.456281 -0.650861 0.957757 0.580958 -0.380413 -0.719565 
-0.72216 0.184038 0.8298 0.0159155 0.554415 -0.832088 
-0.713267 0.173075 0.823667 -0.117235 0.541309 -0.832611 
-0.705294 0.162341 0.818837 0.249752 0.424102 -0.870495 
-0.698854 0.153371 0.81508 0.466505 0.266644 -0.84337 
-0.589451 0.130908 0.668724 0.217235 0.93883 0.26722 
-0.586384 0.118028 0.672634 0.565033 0.283322 0.774898 
-0.581631 0.105148 0.674014 0.485736 0.250184 0.837537 
-0.575727 0.0921149 0.673784 0.484564 0.221921 0.846138 
-0.569977 0.0791582 0.673707 0.489115 0.207473 0.847185 
-0.565377 0.0678882 0.674167 0.756597 -0.0849547 0.648339 
-0.632844 0.0383716 0.792004 0.529912 0.290769 -0.796647 
-0.626711 0.0246483 0.791774 0.554261 0.278583 -0.784338 
-0.620117 0.0110017 0.791007 0.660403 0.269721 -0.700798 
-0.614061 -0.00264497 0.790854 0.68733 0.0995836 -0.719486 
-0.608081 -0.0162916 0.790854 0.682594 0.256795 -0.684194 
-0.601794 -0.0299383 0.790394 0.7368 0.170847 -0.654169 
-0.596351 -0.0435849 0.791314 0.77171 0.217196 -0.597737 
-0.590524 -0.0571549 0.791467 0.816976 0.0919548 -0.569292 
-0.585081 -0.0708015 0.79208 0.699649 0.293781 -0.651294 
-0.579561 -0.0844482 0.79277 0.655773 0.271712 -0.704368 
-0.573734 -0.0974048 0.79254 0.678619 0.228121 -0.698167 
-0.567754 -0.111588 0.792847 0.632614 0.308047 -0.710568 
-0.562387 -0.125158 0.79369 0.581402 0.286569 -0.761479 
-0.555641 -0.138498 0.792464 0.628329 0.123082 -0.768149 
-0.548511 -0.151685 0.790547 0.61726 0.45082 -0.644788 
-0.542454 -0.165101 0.790317 0.404657 0.398156 -0.82324 
-0.536167 -0.178441 0.789704 0.455133 0.399021 -0.796013 
-0.528961 -0.191551 0.787557 0.627924 0.224921 -0.745065 
-0.520911 -0.208035 0.78656 0.785493 0.464187 -0.409307 
-0.513321 -0.229195 0.78909 0.695674 0.342544 -0.631428 
-0.506497 -0.249051 0.791927 0.809769 0.214818 -0.54601 
-0.504657 -0.257561 0.79484 0.911251 0.0214108 -0.411296 
-0.496148 -0.271898 0.79162 0.390837 0.463742 -0.795104 
-0.478054 -0.296508 0.78104 0.238078 -0.259437 0.935955 
-0.462644 -0.310461 0.767317 0.783621 -0.224639 0.579203 
-0.452908 -0.314678 0.755664 0.672983 -0.315941 0.668786 
-0.446698 -0.318204 0.748687 0.682555 -0.320938 0.656595 
-0.496071 -0.356614 0.84636 0.733001 -0.0193282 -0.679953 
-0.492161 -0.371028 0.849964 0.653931 -0.406043 -0.638359 
-0.488404 -0.385518 0.853797 0.373307 0.256201 -0.89163 
-0.484418 -0.397938 0.85602 0.547598 -0.450818 -0.704911 
-0.482731 -0.411354 0.86223 0.648379 0.0106345 -0.761243 
-0.479741 -0.424311 0.86614 0.750416 -0.0660854 -0.657654 
-0.475984 -0.436961 0.8689 0.779265 -0.0635649 -0.623462 
-0.473148 -0.452064 0.87442 0.725137 -0.0646282 -0.685566 
-0.470234 -0.465174 0.878637 0.698203 -0.0113918 -0.715809 
-0.467781 -0.478514 0.883544 0.65688 -0.0942106 -0.748086 
-0.464331 -0.493541 0.888144 0.653318 -0.111174 -0.748876 
-0.461954 -0.507034 0.893357 0.642378 -0.202234 -0.739223 
-0.460114 -0.518764 0.89811 0.596288 -0.170739 -0.784403 
-0.458581 -0.529037 0.902404 0.629827 -0.283458 -0.723167 
-0.457431 -0.542454 0.90915 0.675081 -0.273654 -0.685113 
-0.455974 -0.554874 0.9149 0.605847 -0.174325 -0.776248 
-0.454288 -0.566911 0.920114 0.652565 -0.243955 -0.717387 
-0.452908 -0.579177 0.925864 0.566383 -0.35746 -0.742585 
-0.451911 -0.591751 0.932457 0.665937 -0.19199 -0.72088 
-0.450608 -0.604247 0.938667 0.71036 -0.231144 -0.664802 
-0.449534 -0.616897 0.94526 0.630325 -0.2994 -0.716276 
-0.448998 -0.630007 0.952927 0.612277 -0.281579 -0.738803 
-0.70997 0.186645 0.832944 0.123117 0.449907 -0.884549 
-0.701921 0.175835 0.82796 0.0644624 0.495319 -0.866316 
-0.692797 0.163261 0.82244 0.236447 0.533329 -0.81219 
-0.686894 0.154291 0.819297 0.259949 0.455357 -0.851515 
-0.566221 0.130218 0.656381 0.456939 0.258005 0.851258 
-0.562924 0.117262 0.659831 0.456939 0.258005 0.851258 
-0.557711 0.104535 0.660444 0.464783 0.233029 0.85421 
-0.551884 0.0917315 0.660061 0.231858 0.264146 0.936199 
-0.547744 0.0820716 0.660214 0.642003 -0.383221 0.664059 
-0.634377 0.0619083 0.800897 0.51626 0.289347 -0.806073 
-0.627707 0.0481849 0.799824 0.558017 0.287878 -0.778295 
-0.621267 0.0344616 0.799134 0.557401 0.243382 -0.793769 
-0.615057 0.020815 0.798827 0.555328 0.180025 -0.811912 
-0.609001 0.00716835 0.798674 0.607385 0.281357 -0.742914 
-0.602791 -0.00640163 0.79829 0.620819 0.153165 -0.768846 
-0.597194 -0.0200483 0.79875 0.671771 0.161628 -0.722911 
-0.591827 -0.0336949 0.799594 0.69409 0.25794 -0.67209 
-0.586307 -0.0473416 0.800207 0.734051 0.33241 -0.592176 
-0.580787 -0.0609882 0.80082 0.564618 0.0681897 -0.822531 
-0.575344 -0.0746349 0.801434 0.668196 0.430037 -0.60711 
-0.570514 -0.0868248 0.802124 0.747003 0.183923 -0.638872 
-0.563844 -0.101545 0.801664 0.570894 0.39187 -0.721469 
-0.557787 -0.115268 0.80151 0.549149 0.339685 -0.763577 
-0.551424 -0.128761 0.80082 0.455046 0.304931 -0.83663 
-0.544524 -0.141948 0.799134 0.513608 0.355321 -0.780995 
-0.538544 -0.153525 0.797754 0.599467 0.0640881 -0.797829 
-0.532564 -0.165715 0.796834 0.567858 0.43999 -0.695662 
-0.527274 -0.177061 0.796374 0.501012 0.579381 -0.642888 
-0.521984 -0.185725 0.79415 0.343891 -0.429947 -0.834796 
-0.513244 -0.195538 0.787634 0.685896 0.158502 -0.710229 
-0.501361 -0.213861 0.78196 -0.084306 -0.369485 -0.925404 
-0.502051 -0.233795 0.795837 0.630019 -0.0660787 -0.773763 
-0.504121 -0.243071 0.804884 0.789754 -0.0907764 -0.60667 
-0.495381 -0.258251 0.801817 0.942025 -0.316149 -0.112421 
-0.475524 -0.280561 0.786867 0.865349 -0.15849 0.47545 
-0.460651 -0.293901 0.773527 0.661117 -0.340631 0.668502 
-0.450914 -0.298194 0.761797 0.664072 -0.31945 0.675988 
-0.443784 -0.301414 0.753211 0.662726 -0.317331 0.678303 
-0.492161 -0.342738 0.851574 0.483363 0.137843 -0.8645 
-0.487944 -0.356998 0.854717 0.753209 0.147166 -0.641107 
-0.483958 -0.371334 0.858167 0.755593 -0.191968 -0.626281 
-0.479588 -0.385518 0.86085 0.789299 0.205277 -0.578678 
-0.476368 -0.400238 0.86568 0.613773 0.0581778 -0.787336 
-0.472918 -0.412964 0.868747 0.644163 0.0205108 -0.764614 
-0.470464 -0.426074 0.873577 0.689932 -0.234812 -0.684732 
-0.467244 -0.438954 0.87718 0.653674 -0.110302 -0.748695 
-0.464791 -0.452218 0.881934 0.621272 -0.059953 -0.781299 
-0.462414 -0.465558 0.886994 0.458412 0.0359099 -0.888014 
-0.459731 -0.476751 0.89029 0.622267 -0.136026 -0.770897 
-0.457354 -0.488098 0.894047 0.615742 -0.138231 -0.775728 
-0.454978 -0.499521 0.897804 0.619565 -0.171019 -0.766089 
-0.452908 -0.511021 0.90202 0.631113 -0.128509 -0.764971 
-0.451068 -0.523057 0.906927 0.714763 -0.191709 -0.672578 
-0.449458 -0.538544 0.914364 0.567523 -0.273497 -0.776606 
-0.448231 -0.551041 0.92042 0.677493 -0.196777 -0.708719 
-0.446698 -0.563154 0.92594 0.752926 -0.138665 -0.643331 
-0.445318 -0.575344 0.931537 0.661496 -0.232783 -0.712906 
-0.444091 -0.587764 0.937747 0.681014 -0.268102 -0.681426 
-0.443248 -0.600491 0.944723 0.67991 -0.304339 -0.667159 
-0.442481 -0.613371 0.951853 0.776215 -0.227927 -0.587826 
-0.701844 0.192778 0.839307 0.143798 0.607103 -0.781504 
-0.693947 0.181968 0.834324 0.20106 0.634353 -0.746439 
-0.686204 0.171158 0.829647 0.184046 0.511094 -0.839589 
-0.679151 0.160501 0.825967 0.318172 0.418248 -0.850785 
-0.674321 0.153371 0.823284 0.297206 0.508206 -0.808329 
-0.541227 0.116648 0.649021 0.0963285 0.339966 0.935492 
-0.536244 0.105378 0.648791 0.0963285 0.339966 0.935491 
-0.629164 0.0717982 0.80841 0.470653 0.277097 -0.837677 
-0.622417 0.0579216 0.807337 0.536734 0.223902 -0.813502 
-0.615824 0.0441983 0.80634 0.60779 0.276133 -0.744541 
-0.609614 0.0305516 0.805957 0.562197 0.186969 -0.805592 
-0.603941 0.016905 0.80634 0.604547 0.183516 -0.775141 
-0.598037 0.00325835 0.806187 0.604048 0.124338 -0.787188 
-0.592747 -0.0103883 0.807184 0.736563 0.214888 -0.641326 
-0.587304 -0.0240349 0.807874 0.632823 0.19841 -0.748444 
-0.581861 -0.0376816 0.80841 0.692442 0.14879 -0.705965 
-0.576571 -0.0513282 0.80933 0.70728 0.37925 -0.596595 
-0.571434 -0.0649749 0.81048 0.642983 0.234879 -0.728976 
-0.565301 -0.0785448 0.81002 0.647187 0.240659 -0.723348 
-0.559321 -0.0926515 0.810174 0.554232 0.362293 -0.74938 
-0.553187 -0.105531 0.809254 0.653272 0.274661 -0.705548 
-0.546594 -0.118871 0.808104 0.650483 0.305072 -0.695559 
-0.540001 -0.132211 0.806877 0.595662 0.308659 -0.741564 
-0.533254 -0.145475 0.80542 0.716726 0.219489 -0.661913 
-0.527887 -0.158355 0.805727 0.415957 0.411879 -0.810763 
-0.522137 -0.170545 0.805114 0.593806 0.232011 -0.770432 
-0.510714 -0.179055 0.793614 0.634134 0.673332 -0.380128 
-0.510484 -0.194465 0.803197 0.239458 0.554966 -0.796664 
-0.503201 -0.218921 0.808257 0.80443 0.201667 -0.558769 
-0.492008 -0.239391 0.80473 0.194499 0.277948 -0.940699 
-0.470234 -0.264845 0.78886 0.0523568 -0.153184 0.98681 
-0.453598 -0.279565 0.773604 0.654004 -0.339661 0.675951 
-0.444551 -0.284165 0.762947 0.644258 -0.352692 0.678631 
-0.437421 -0.287461 0.754437 0.64611 -0.3517 0.677384 
-0.489708 -0.321578 0.85441 0.73075 0.066989 -0.67935 
-0.485261 -0.335684 0.857017 0.502307 0.210278 -0.838732 
-0.482194 -0.350328 0.861924 0.783633 -0.0767106 -0.61647 
-0.477748 -0.362518 0.863304 0.836733 0.0051809 -0.547587 
-0.474988 -0.375321 0.867444 0.625521 0.0644438 -0.777542 
-0.470618 -0.389581 0.870204 0.588179 0.0433468 -0.807569 
-0.467321 -0.404301 0.87488 0.712345 -0.0335503 -0.701027 
-0.463871 -0.419021 0.879174 0.774422 -0.0891376 -0.626358 
-0.460268 -0.431748 0.882087 0.742021 -0.0166602 -0.670169 
-0.458044 -0.444934 0.887224 0.685637 -0.00814743 -0.727898 
-0.455131 -0.460038 0.89259 0.58765 0.072363 -0.805873 
-0.451681 -0.474988 0.89696 0.687117 -0.126885 -0.715381 
-0.448844 -0.488174 0.901177 0.655203 -0.0501563 -0.753786 
-0.446544 -0.499597 0.90501 0.653506 -0.190957 -0.732438 
-0.444858 -0.511327 0.909917 0.673679 -0.268227 -0.68863 
-0.443018 -0.525894 0.916357 0.674987 -0.177433 -0.716178 
-0.441638 -0.539311 0.922797 0.679749 -0.25084 -0.689217 
-0.440104 -0.551347 0.928087 0.668156 -0.296683 -0.68231 
-0.438648 -0.563461 0.93353 0.726426 -0.233742 -0.646274 
-0.437191 -0.575727 0.939204 0.756633 -0.281684 -0.590051 
-0.436501 -0.588377 0.946334 0.769566 -0.258731 -0.583803 
-0.435964 -0.601257 0.953847 0.73001 -0.272646 -0.626697 
-0.690574 0.194541 0.844214 0.409579 0.498699 -0.763901 
-0.682754 0.183731 0.839384 0.316262 0.498585 -0.807088 
-0.674244 0.171235 0.834554 0.382854 0.477291 -0.790959 
-0.665887 0.158508 0.830184 0.378054 0.44176 -0.813587 
-0.523747 0.132211 0.634684 0.158789 0.685813 0.710244 
-0.634301 0.104688 0.817304 0.515023 0.339321 -0.787155 
-0.627401 0.0908882 0.815924 0.469446 0.295828 -0.831929 
-0.621037 0.0771649 0.815157 0.553486 0.396292 -0.732534 
-0.615211 0.0634416 0.815234 0.67737 0.184522 -0.712125 
-0.608771 0.0497949 0.81439 0.647654 0.319845 -0.691552 
-0.602944 0.0361483 0.81439 0.710018 0.316447 -0.629075 
-0.597271 0.0225017 0.81485 0.743007 0.264852 -0.614649 
-0.591367 0.00885501 0.814697 0.591735 0.399479 -0.70019 
-0.586001 -0.00471497 0.815387 0.792446 0.273043 -0.545415 
-0.580711 -0.0183616 0.816307 0.669922 0.31434 -0.672604 
-0.575957 -0.0320849 0.817917 0.73894 0.359548 -0.569818 
-0.570207 -0.0456549 0.817994 0.737174 0.330496 -0.589361 
-0.564764 -0.0593015 0.81853 0.530472 0.479264 -0.699218 
-0.558631 -0.0727949 0.817994 0.706837 0.217536 -0.673098 
-0.552651 -0.0869015 0.818147 0.663692 0.331485 -0.670545 
-0.546364 -0.0997815 0.817074 0.637726 0.247738 -0.729336 
-0.540231 -0.113198 0.81646 0.617309 0.307241 -0.724246 
-0.533484 -0.126461 0.814927 0.608149 0.307982 -0.731643 
-0.526814 -0.139725 0.813547 0.596364 0.422844 -0.682314 
-0.521064 -0.151608 0.812627 0.678957 0.261993 -0.685841 
-0.514854 -0.165178 0.81209 0.691747 0.151735 -0.706018 
-0.505884 -0.184268 0.811094 0.128443 0.765343 -0.630676 
-0.497911 -0.196458 0.80703 -0.294805 0.138391 -0.945483 
-0.480661 -0.215088 0.79323 -0.182998 -0.501686 0.845472 
-0.462491 -0.245985 0.7861 -0.328686 -0.209398 0.920933 
-0.450454 -0.263618 0.779354 0.58221 -0.317833 0.748341 
-0.440794 -0.268065 0.7677 0.649559 -0.339934 0.680087 
-0.431748 -0.272588 0.756967 0.645842 -0.347582 0.679761 
-0.485568 -0.308544 0.860927 0.373251 0.433807 -0.820058 
-0.480584 -0.322421 0.862537 0.501064 -0.143366 -0.853453 
-0.475601 -0.336298 0.864147 0.692906 0.0221627 -0.720688 
-0.472381 -0.350941 0.868747 0.557951 0.0912267 -0.824844 
-0.468624 -0.365278 0.872427 0.61957 0.0018178 -0.78494 
-0.464638 -0.379001 0.87534 0.67477 0.00922707 -0.737971 
-0.461264 -0.394258 0.88017 0.67239 0.0332315 -0.739451 
-0.457431 -0.408824 0.883927 0.736437 -0.134334 -0.663035 
-0.453751 -0.423391 0.88776 0.737129 0.0128143 -0.675631 
-0.450148 -0.438111 0.891824 0.625043 -0.0684561 -0.777583 
-0.448461 -0.451681 0.898034 0.629094 -0.0711594 -0.774066 
-0.445241 -0.464561 0.901407 0.665217 -0.0634289 -0.743951 
-0.442174 -0.479741 0.906467 0.659619 -0.113167 -0.743031 
-0.439261 -0.492851 0.91053 0.726978 -0.117207 -0.676584 
-0.437804 -0.504657 0.915744 0.714278 -0.195081 -0.672123 
-0.436194 -0.514931 0.91996 0.724757 -0.179421 -0.665233 
-0.434661 -0.528041 0.92594 0.771534 -0.180764 -0.609967 
-0.433204 -0.540384 0.931537 0.769129 -0.234939 -0.594344 
-0.432208 -0.552727 0.937747 0.767245 -0.292773 -0.570631 
-0.431134 -0.565071 0.943957 0.762297 -0.259737 -0.592824 
-0.430138 -0.577567 0.95032 0.74967 -0.203791 -0.629654 
-0.680607 0.198835 0.85004 0.243237 0.496607 -0.833197 
-0.671714 0.186261 0.844597 0.232849 0.524611 -0.81888 
-0.662667 0.172155 0.839997 0.349427 0.472165 -0.809296 
-0.653774 0.157971 0.83555 0.36436 0.452696 -0.813823 
-0.645264 0.143941 0.831717 0.487954 0.421195 -0.764523 
-0.637291 0.129988 0.82865 0.443145 0.503349 -0.741797 
-0.630007 0.116112 0.826504 0.562 0.311547 -0.766221 
-0.622494 0.102312 0.82405 0.377426 0.396266 -0.836972 
-0.616131 0.0885116 0.823437 0.507515 0.279154 -0.81517 
-0.610227 0.0748649 0.823284 0.615518 0.243411 -0.749592 
-0.604017 0.0612183 0.82267 0.658908 0.267029 -0.703233 
-0.597961 0.0475716 0.822517 0.63954 0.239089 -0.730634 
-0.592517 0.033925 0.822977 0.590781 0.313838 -0.743292 
-0.587304 0.0202783 0.823974 0.645709 0.217188 -0.732045 
-0.581861 0.00670835 0.824587 0.730453 0.199968 -0.653032 
-0.576187 -0.0069383 0.82474 0.697713 0.196581 -0.688877 
-0.570897 -0.0205849 0.825507 0.682863 -0.124066 -0.719935 
-0.565684 -0.0342316 0.826427 0.696491 0.290193 -0.656269 
-0.560011 -0.0478016 0.826657 0.59971 0.126345 -0.79018 
-0.554261 -0.0612949 0.82658 0.528795 0.36421 -0.766633 
-0.548434 -0.0750182 0.826657 0.594562 0.189535 -0.781391 
-0.540461 -0.0914248 0.8252 0.451255 0.306524 -0.8381 
-0.534251 -0.104995 0.82451 0.543561 0.223193 -0.809151 
-0.527964 -0.118411 0.82382 0.612061 0.314555 -0.72556 
-0.520911 -0.131521 0.821674 0.614402 0.398881 -0.680738 
-0.514854 -0.144861 0.82106 0.625465 0.395598 -0.67253 
-0.509487 -0.158278 0.82175 0.829188 0.114276 -0.547165 
-0.496761 -0.172001 0.811477 -0.638093 -0.0719833 -0.766587 
-0.495228 -0.183501 0.816614 -0.696196 0.237461 -0.677439 
-0.484111 -0.186415 0.801817 -0.275745 -0.59738 0.753061 
-0.472228 -0.201748 0.79392 -0.566298 -0.472617 0.675233 
-0.459884 -0.229425 0.793154 -0.271465 -0.453713 0.848794 
-0.448154 -0.245371 0.785717 0.467989 -0.337723 0.816658 
-0.438571 -0.249971 0.774294 0.567375 -0.297501 0.76784 
-0.483191 -0.285774 0.864607 0.644485 0.148477 -0.750063 
-0.479358 -0.299958 0.868057 0.417545 0.312774 -0.853129 
-0.474298 -0.313758 0.869284 0.636565 -0.00600916 -0.7712 
-0.469161 -0.327558 0.870664 0.642055 0.0174585 -0.766459 
-0.465174 -0.341818 0.873884 0.739513 -0.0106355 -0.673058 
-0.461878 -0.356308 0.878407 0.713986 0.118249 -0.690102 
-0.457508 -0.370491 0.881014 0.606418 -0.0174344 -0.794955 
-0.453828 -0.384981 0.885 0.626609 -0.0291997 -0.778786 
-0.450301 -0.399548 0.889064 0.705008 -0.111903 -0.700315 
-0.446928 -0.414191 0.89351 0.610912 0.0481677 -0.790232 
-0.443324 -0.428834 0.89742 0.676593 -0.165612 -0.717492 
-0.440411 -0.443861 0.90271 0.645804 0.0237889 -0.763133 
-0.437651 -0.459041 0.90823 0.660536 -0.0736474 -0.747173 
-0.434124 -0.473914 0.912447 0.680113 -0.123259 -0.722671 
-0.431518 -0.489247 0.918274 0.731925 -0.0885565 -0.675606 
-0.429218 -0.502741 0.92341 0.757561 -0.155185 -0.63405 
-0.427684 -0.514624 0.928547 0.72578 -0.252671 -0.639845 
-0.426918 -0.526891 0.93514 0.768616 -0.16498 -0.61807 
-0.425538 -0.538927 0.94066 0.778234 -0.205919 -0.593253 
-0.424464 -0.551194 0.946794 0.737102 -0.260723 -0.623461 
-0.666884 0.196151 0.85372 0.417198 0.547264 -0.725567 
-0.657531 0.181891 0.84866 0.431397 0.588662 -0.683647 
-0.649557 0.169548 0.84452 0.370669 0.458899 -0.807475 
-0.641737 0.156668 0.84084 0.479013 0.417068 -0.7724 
-0.634147 0.143328 0.83785 0.606294 0.348138 -0.714988 
-0.626711 0.129451 0.83555 0.439448 0.550182 -0.71006 
-0.619427 0.115575 0.833404 0.489389 0.339467 -0.803281 
-0.612374 0.101852 0.831564 0.537563 0.323401 -0.778741 
-0.606087 0.0881282 0.830874 0.549849 0.343354 -0.761429 
-0.600567 0.0744049 0.831334 0.554046 0.268588 -0.787968 
-0.594817 0.0608349 0.83141 0.622507 0.198145 -0.757115 
-0.589297 0.0471883 0.83187 0.575325 0.263582 -0.77429 
-0.583164 0.0336183 0.831334 0.74591 0.344651 -0.569942 
-0.578641 0.0199717 0.83325 0.621392 0.236786 -0.746863 
-0.573427 0.00632501 0.83417 0.697431 0.118517 -0.706784 
-0.567984 -0.00724496 0.834784 0.706397 0.153582 -0.690953 
-0.562464 -0.0208149 0.83509 0.688611 0.249634 -0.680806 
-0.556637 -0.0343849 0.835014 0.62447 0.0225988 -0.780722 
-0.550657 -0.0479549 0.834707 0.450909 0.220495 -0.864906 
-0.544907 -0.0614482 0.83463 0.612037 0.228456 -0.757112 
-0.539234 -0.0734849 0.833864 0.481282 0.371798 -0.79381 
-0.531874 -0.0880515 0.832024 0.597052 0.286941 -0.749129 
-0.525587 -0.101621 0.831257 0.579351 0.391593 -0.714848 
-0.519761 -0.114425 0.830797 0.55268 0.437164 -0.70953 
-0.513244 -0.128225 0.8298 0.642318 0.368273 -0.672163 
-0.508567 -0.140568 0.83072 0.780127 0.110596 -0.615769 
-0.502434 -0.156285 0.83164 0.867792 0.267552 -0.418752 
-0.499138 -0.169548 0.835167 0.914345 0.0348854 -0.40343 
-0.497528 -0.181431 0.840457 0.979869 0.126975 -0.154056 
-0.475371 -0.193545 0.814774 -0.214682 -0.630747 0.745701 
-0.458351 -0.213018 0.801817 -0.192323 -0.501076 0.843762 
-0.447158 -0.225515 0.792924 0.507797 -0.364462 0.780583 
-0.438264 -0.230345 0.78265 0.587512 -0.341353 0.733694 
-0.430368 -0.235405 0.773834 0.593353 -0.302649 0.74588 
-0.479434 -0.268065 0.86913 0.473188 -0.00293611 -0.880957 
-0.475601 -0.282248 0.87258 0.747234 -0.0293909 -0.663911 
-0.470311 -0.295894 0.8735 0.38402 0.222633 -0.896082 
-0.465941 -0.309924 0.87603 0.579307 0.0209277 -0.814841 
-0.461494 -0.323954 0.878407 0.559885 -0.0572076 -0.826593 
-0.458121 -0.338368 0.882624 0.688001 -0.0488237 -0.724066 
-0.454058 -0.352628 0.885767 0.647479 0.107953 -0.754398 
-0.448998 -0.366504 0.8873 0.674207 -0.0494997 -0.736882 
-0.445701 -0.381071 0.891747 0.702738 -0.059397 -0.708965 
-0.442634 -0.395791 0.89673 0.686987 -0.00694744 -0.726637 
-0.439031 -0.410358 0.90064 0.664838 0.099251 -0.740365 
-0.435811 -0.425154 0.905317 0.684601 -0.213997 -0.696797 
-0.432514 -0.439951 0.909917 0.632715 -0.116961 -0.765501 
-0.429831 -0.455131 0.91559 0.745483 -0.0799971 -0.661707 
-0.426381 -0.470004 0.919807 0.747501 -0.0659854 -0.660976 
-0.423928 -0.483344 0.924637 0.738658 -0.149554 -0.65728 
-0.422471 -0.495151 0.929927 0.786039 -0.140711 -0.60195 
-0.421091 -0.507341 0.935524 0.791845 -0.199707 -0.577147 
-0.419711 -0.522827 0.943267 0.779158 -0.195384 -0.595599 
-0.656687 0.196841 0.85878 0.311627 0.467578 -0.8272 
-0.648637 0.184498 0.85441 0.289081 0.523589 -0.801428 
-0.640817 0.172155 0.8505 0.521526 0.433432 -0.734947 
-0.632691 0.158125 0.84705 0.53244 0.417367 -0.736419 
-0.625101 0.144248 0.844367 0.504473 0.225576 -0.83344 
-0.617971 0.130448 0.842374 0.433606 0.443003 -0.784687 
-0.610611 0.116648 0.840227 0.549791 0.353847 -0.756652 
-0.604094 0.102848 0.839077 0.507106 0.463067 -0.72692 
-0.597961 0.0892016 0.838617 0.598777 0.40344 -0.691883 
-0.592594 0.0755549 0.83923 0.668067 0.223978 -0.709592 
-0.587151 0.0619849 0.839767 0.66259 0.2288 -0.71318 
-0.581401 0.0483383 0.839767 0.680417 0.162768 -0.71452 
-0.575881 0.0347683 0.84015 0.583591 0.168276 -0.794421 
-0.570897 0.0211983 0.84153 0.733286 0.257034 -0.629464 
-0.564841 0.00762834 0.84107 0.662507 0.284426 -0.692955 
-0.559627 -0.00594163 0.841837 0.633549 0.221449 -0.741334 
-0.554491 -0.0195883 0.84291 0.581854 0.349822 -0.734214 
-0.548051 -0.0330049 0.84176 0.553976 0.330962 -0.763921 
-0.542071 -0.0464982 0.841377 0.43864 0.595458 -0.673072 
-0.536167 -0.0599915 0.84107 0.565914 0.0884959 -0.819701 
-0.529957 -0.0736382 0.840457 0.60386 0.438474 -0.665653 
