ply
format ascii 1.0
comment VCGLIB generated
element vertex 670
property float x
property float y
property float z
property float nx
property float ny
property float nz
property uchar red
property uchar green
property uchar blue
property uchar alpha
element face 0
property list uchar int vertex_indices
end_header
-0.343248 -0.672373 -0.0798276 0.168897 0.984842 0.0394969 255 255 255 255 
-0.332534 -0.674246 -0.0864955 0.256825 0.963908 0.0701575 255 255 255 255 
-0.322944 -0.676793 -0.0921146 0.338117 0.935376 0.103678 255 255 255 255 
-0.313879 -0.67964 -0.0971342 0.427103 0.890456 0.157069 255 255 255 255 
-0.304664 -0.683986 -0.101555 0.522598 0.827328 0.20596 255 255 255 255 
-0.294924 -0.68938 -0.10575 0.588997 0.765335 0.259511 255 255 255 255 
-0.286308 -0.695673 -0.108822 0.664849 0.677597 0.314385 255 255 255 255 
-0.278816 -0.702866 -0.110545 0.723891 0.587439 0.361797 255 255 255 255 
-0.273047 -0.711332 -0.11047 0.79138 0.459735 0.40294 255 255 255 255 
-0.269301 -0.721671 -0.108073 0.818007 0.391304 0.4216 255 255 255 255 
-0.268627 -0.732984 -0.102978 1 0 0 255 255 255 255 
-0.271474 -0.744072 -0.0955609 1 0 0 255 255 255 255 
-0.27537 -0.752763 -0.0884435 1 0 0 255 255 255 255 
-0.322345 -0.814797 -0.0242367 0.817704 0.575571 0.0088564 255 255 255 255 
-0.315527 -0.823562 -0.0247611 0.832939 0.553172 0.0146175 255 255 255 255 
-0.309609 -0.833152 -0.0241618 0.85162 0.521404 -0.0536848 255 255 255 255 
-0.303615 -0.842742 -0.0237122 0.876422 0.471215 -0.0992001 255 255 255 255 
-0.29852 -0.853156 -0.0222888 0.908438 0.402933 -0.111285 255 255 255 255 
-0.2938 -0.864094 -0.0202659 0.94046 0.322768 -0.106567 255 255 255 255 
-0.290579 -0.874508 -0.0174939 0.972159 0.222581 -0.0732403 255 255 255 255 
-0.288631 -0.884473 -0.0138976 0.992249 0.122592 -0.0203475 255 255 255 255 
-0.287957 -0.895711 -0.00887799 0.999569 0.0106481 0.0273718 255 255 255 255 
-0.288631 -0.906499 -0.00310908 0.994101 -0.0875538 0.0640095 255 255 255 255 
-0.290953 -0.916988 0.00370859 0.983041 -0.171782 0.0642036 255 255 255 255 
-0.399663 -0.672823 -0.0320284 -0.145205 0.989383 -0.00601929 255 255 255 255 
-0.38805 -0.671174 -0.0412436 -0.1285 0.99157 -0.0166585 255 255 255 255 
-0.377711 -0.67035 -0.0489604 0.0133131 0.997591 0.0680769 255 255 255 255 
-0.368271 -0.6702 -0.0557032 0.0661706 0.995186 0.0722925 255 255 255 255 
-0.359805 -0.67065 -0.061547 0.116942 0.990388 0.0738622 255 255 255 255 
-0.351939 -0.671474 -0.0667915 0.168712 0.981314 0.0925135 255 255 255 255 
-0.342573 -0.672673 -0.07286 0.229825 0.96676 0.112051 255 255 255 255 
-0.332234 -0.674845 -0.0791534 0.311126 0.940073 0.139512 255 255 255 255 
-0.322795 -0.677543 -0.0845476 0.395959 0.904106 0.160652 255 255 255 255 
-0.314478 -0.680914 -0.088818 0.475401 0.856611 0.200528 255 255 255 255 
-0.305563 -0.685484 -0.0928637 0.561145 0.792994 0.237228 255 255 255 255 
-0.296423 -0.691403 -0.09646 0.626592 0.72497 0.286008 255 255 255 255 
-0.288331 -0.698146 -0.0988574 0.706361 0.626794 0.328912 255 255 255 255 
-0.281888 -0.706162 -0.0994568 0.760186 0.521644 0.387305 255 255 255 255 
-0.277243 -0.715677 -0.0981082 0.799779 0.431887 0.416926 255 255 255 255 
-0.275295 -0.725866 -0.0945869 1 0 0 255 255 255 255 
-0.276044 -0.735007 -0.0895673 1 0 0 255 255 255 255 
-0.278292 -0.743847 -0.0836486 1 0 0 255 255 255 255 
-0.282263 -0.752538 -0.0764562 1 0 0 255 255 255 255 
-0.322495 -0.813223 -0.0177935 0.850494 0.525781 0.0146359 255 255 255 255 
-0.31725 -0.821839 -0.017344 0.819977 0.571506 0.0319265 255 255 255 255 
-0.310882 -0.83098 -0.0174189 0.833782 0.552088 -0.00254162 255 255 255 255 
-0.304814 -0.840494 -0.0169694 0.857752 0.513079 -0.0318119 255 255 255 255 
-0.299344 -0.850534 -0.0159205 0.899569 0.43182 -0.0656256 255 255 255 255 
-0.295224 -0.859974 -0.0142723 0.92931 0.361497 -0.0755189 255 255 255 255 
-0.292077 -0.86859 -0.0123993 0.961626 0.267815 -0.0595812 255 255 255 255 
-0.289979 -0.878179 -0.00917773 0.986573 0.16154 -0.024035 255 255 255 255 
-0.288706 -0.888743 -0.00483233 0.998241 0.0563895 0.0182985 255 255 255 255 
-0.289005 -0.899007 0.000337192 0.996879 -0.0423411 0.0666306 255 255 255 255 
-0.290279 -0.908447 0.00595622 0.993208 -0.0904194 0.0732227 255 255 255 255 
-0.292751 -0.917063 0.0119499 0.973688 -0.223143 0.0462428 255 255 255 255 
-0.394718 -0.673946 -0.0274582 1 0 0 255 255 255 255 
-0.38333 -0.672523 -0.036224 0.112395 0.970108 0.215076 255 255 255 255 
-0.373591 -0.672073 -0.0433414 0.128326 0.970618 0.20355 255 255 255 255 
-0.3646 -0.672148 -0.0497096 0.165509 0.964514 0.20572 255 255 255 255 
-0.356059 -0.672598 -0.0556284 0.25655 0.935695 0.242191 255 255 255 255 
-0.346694 -0.673871 -0.061622 0.30843 0.916429 0.255006 255 255 255 255 
-0.33613 -0.675894 -0.0681401 0.374367 0.888131 0.266592 255 255 255 255 
-0.326765 -0.678666 -0.0734594 0.445378 0.848583 0.28556 255 255 255 255 
-0.318224 -0.681963 -0.0779546 0.513925 0.800991 0.307074 255 255 255 255 
-0.309309 -0.686533 -0.0820003 0.57691 0.749465 0.324772 255 255 255 255 
-0.300543 -0.692826 -0.085072 0.648976 0.675865 0.349337 255 255 255 255 
-0.292751 -0.699794 -0.0872447 0.716733 0.581678 0.384636 255 255 255 255 
-0.286908 -0.708335 -0.0872447 0.757812 0.510687 0.406103 255 255 255 255 
-0.283012 -0.718524 -0.0849222 1 0 0 255 255 255 255 
-0.281813 -0.729387 -0.0805019 1 0 0 255 255 255 255 
-0.283461 -0.739277 -0.0744333 1 0 0 255 255 255 255 
-0.287357 -0.749541 -0.0666416 1 0 0 255 255 255 255 
-0.325791 -0.809627 -0.00970211 0.797238 0.561231 0.222334 255 255 255 255 
-0.320247 -0.818318 -0.00940248 0.814073 0.565806 0.130949 255 255 255 255 
-0.313579 -0.827159 -0.00985199 0.809908 0.583227 0.0624109 255 255 255 255 
-0.307136 -0.836299 -0.00992687 0.831442 0.555285 0.0190709 255 255 255 255 
-0.301217 -0.845814 -0.00955224 0.871255 0.490305 -0.0227063 255 255 255 255 
-0.295973 -0.856078 -0.00820373 0.914938 0.400227 -0.0520198 255 255 255 255 
-0.292152 -0.865892 -0.00610597 0.953588 0.296336 -0.0534263 255 255 255 255 
-0.28983 -0.875258 -0.00325896 0.984504 0.168048 -0.0501256 255 255 255 255 
-0.288556 -0.885746 0.000936569 0.998862 0.0451732 -0.0153243 255 255 255 255 
-0.288706 -0.895786 0.00595622 0.997571 -0.0622073 0.0313276 255 255 255 255 
-0.289979 -0.905076 0.0114254 0.991371 -0.117601 0.0579046 255 255 255 255 
-0.292152 -0.913392 0.0170444 0.973688 -0.223143 0.0462428 255 255 255 255 
-0.388575 -0.677243 -0.0212399 1 0 0 255 255 255 255 
-0.377711 -0.676044 -0.029556 1 0 0 255 255 255 255 
-0.368196 -0.675819 -0.0364488 1 0 0 255 255 255 255 
-0.357558 -0.676269 -0.0437909 0.321959 0.891971 0.317378 255 255 255 255 
-0.346095 -0.677767 -0.051208 0.370563 0.867928 0.330732 255 255 255 255 
-0.335831 -0.680015 -0.0574264 0.404326 0.85922 0.313467 255 255 255 255 
-0.326915 -0.683087 -0.0622213 0.479587 0.817136 0.31982 255 255 255 255 
-0.317625 -0.687507 -0.0666416 0.559633 0.759881 0.330744 255 255 255 255 
-0.308485 -0.69365 -0.0700879 0.62816 0.682495 0.373651 255 255 255 255 
-0.300993 -0.700843 -0.071961 0.706919 0.573071 0.414554 255 255 255 255 
-0.295224 -0.709459 -0.0717362 0.742836 0.508579 0.435364 255 255 255 255 
-0.291628 -0.720022 -0.0691889 1 0 0 255 255 255 255 
-0.290579 -0.730961 -0.0645438 1 0 0 255 255 255 255 
-0.292377 -0.741 -0.0583254 1 0 0 255 255 255 255 
-0.296797 -0.751639 -0.0499344 1 0 0 255 255 255 255 
-0.335681 -0.803259 0.00310921 0.718926 0.577303 0.387126 255 255 255 255 
-0.329163 -0.812175 0.00280958 0.732505 0.595271 0.330285 255 255 255 255 
-0.321596 -0.820266 0.00138607 0.733242 0.634495 0.244483 255 255 255 255 
-0.314104 -0.828357 -3.74327e-005 0.768487 0.621191 0.153457 255 255 255 255 
-0.307211 -0.837048 -0.00063681 0.808858 0.580075 0.0962403 255 255 255 255 
-0.301068 -0.846413 -0.000486937 0.857016 0.511167 0.0650599 255 255 255 255 
-0.295748 -0.856602 0.000711817 0.909286 0.414013 0.0423266 255 255 255 255 
-0.291478 -0.867915 0.00325908 0.956542 0.288224 0.0442149 255 255 255 255 
-0.28908 -0.879153 0.0070051 0.987721 0.139817 0.0697033 255 255 255 255 
-0.28893 -0.890766 0.0125493 0.993013 0.0061075 0.117843 255 255 255 255 
-0.290504 -0.902229 0.0192172 0.989664 -0.0600936 0.130208 255 255 255 255 
-0.292452 -0.91032 0.0246114 1 0 0 255 255 255 255 
-0.375089 -0.683012 -0.0181682 1 0 0 255 255 255 255 
-0.363926 -0.683237 -0.0260348 1 0 0 255 255 255 255 
-0.353662 -0.683986 -0.0329275 1 0 0 255 255 255 255 
-0.342798 -0.685859 -0.0398201 0.488269 0.77191 0.407122 255 255 255 255 
-0.332309 -0.68953 -0.0454392 0.488269 0.77191 0.407122 255 255 255 255 
-0.32242 -0.695149 -0.0497096 1 0 0 255 255 255 255 
-0.314329 -0.702191 -0.0519572 1 0 0 255 255 255 255 
-0.308335 -0.710732 -0.0520322 1 0 0 255 255 255 255 
-0.304439 -0.720996 -0.0497845 1 0 0 255 255 255 255 
-0.303915 -0.732459 -0.0445401 1 0 0 255 255 255 255 
-0.306387 -0.743098 -0.0375725 1 0 0 255 255 255 255 
-0.353512 -0.800562 0.0241619 0.628737 0.643608 0.436416 255 255 255 255 
-0.344297 -0.80738 0.0209403 0.621481 0.659326 0.423144 255 255 255 255 
-0.335156 -0.814272 0.0177937 0.64111 0.675578 0.364105 255 255 255 255 
-0.326091 -0.821015 0.0147219 0.65445 0.697718 0.29135 255 255 255 255 
-0.317475 -0.828208 0.0121746 0.703133 0.67313 0.22913 255 255 255 255 
-0.309983 -0.836374 0.0108261 0.770449 0.611798 0.179197 255 255 255 255 
-0.303465 -0.845364 0.0105264 0.822939 0.548167 0.149279 255 255 255 255 
-0.297546 -0.854954 0.0110509 0.88071 0.454375 0.133768 255 255 255 255 
-0.293051 -0.866042 0.0132235 0.936655 0.319149 0.144296 255 255 255 255 
-0.290878 -0.87743 0.0172693 0.968893 0.170721 0.179165 255 255 255 255 
-0.290878 -0.889118 0.0229632 0.978869 0.0649001 0.193914 255 255 255 255 
-0.293126 -0.901255 0.0303803 0.977443 -0.0201387 0.210237 255 255 255 255 
-0.296048 -0.910245 0.0368234 1 0 0 255 255 255 255 
-0.359506 -0.695748 -0.0139726 1 0 0 255 255 255 255 
-0.349766 -0.698445 -0.0195167 1 0 0 255 255 255 255 
-0.339352 -0.702266 -0.0250608 1 0 0 255 255 255 255 
-0.330661 -0.709234 -0.0278328 1 0 0 255 255 255 255 
-0.322944 -0.719573 -0.0282075 1 0 0 255 255 255 255 
-0.318824 -0.730062 -0.0260348 1 0 0 255 255 255 255 
-0.392695 -0.81195 0.0668665 -0.0363197 0.992958 0.112758 255 255 255 255 
-0.380408 -0.809178 0.0565275 0.177646 0.953916 0.241839 255 255 255 255 
-0.370294 -0.808054 0.0487358 0.331264 0.89004 0.313198 255 255 255 255 
-0.359955 -0.808503 0.0416184 0.438565 0.828099 0.34916 255 255 255 255 
-0.35059 -0.811575 0.0365238 0.521763 0.777038 0.352101 255 255 255 255 
-0.34085 -0.816145 0.0318787 0.560662 0.760055 0.328594 255 255 255 255 
-0.330811 -0.822139 0.0276082 0.603117 0.750093 0.27131 255 255 255 255 
-0.321596 -0.828732 0.0243117 0.653022 0.717553 0.242239 255 255 255 255 
-0.313205 -0.836149 0.0219892 0.725005 0.654726 0.21378 255 255 255 255 
-0.306087 -0.844615 0.0211651 0.797181 0.57466 0.185119 255 255 255 255 
-0.300019 -0.85413 0.0215397 0.862445 0.46892 0.190536 255 255 255 255 
-0.295523 -0.865143 0.0236374 0.921151 0.330465 0.205607 255 255 255 255 
-0.293351 -0.876531 0.0276082 0.95683 0.185526 0.223734 255 255 255 255 
-0.293201 -0.886121 0.0321784 0.96797 0.0908222 0.234061 255 255 255 255 
-0.29455 -0.895261 0.0375726 0.977443 -0.0201387 0.210237 255 255 255 255 
-0.296947 -0.903577 0.0433415 1 0 0 255 255 255 255 
-0.408578 -0.816295 0.0876944 -0.198745 0.980037 -0.00527289 255 255 255 255 
-0.398689 -0.813823 0.0793034 -0.0740815 0.99368 0.0843374 255 255 255 255 
-0.387676 -0.812175 0.0704627 -0.0157729 0.994479 0.103743 255 255 255 255 
-0.377711 -0.811275 0.0628208 0.120652 0.975151 0.185806 255 255 255 255 
-0.368945 -0.81135 0.0566774 0.248884 0.940735 0.230379 255 255 255 255 
-0.359655 -0.812699 0.0506837 0.35773 0.895716 0.26405 255 255 255 255 
-0.349766 -0.815321 0.0449898 0.463072 0.840781 0.280449 255 255 255 255 
-0.341375 -0.819142 0.040944 0.51567 0.816529 0.259547 255 255 255 255 
-0.333283 -0.823263 0.037273 0.570668 0.782616 0.248695 255 255 255 255 
-0.326016 -0.827983 0.034426 0.611835 0.759755 0.22007 255 255 255 255 
-0.319348 -0.833152 0.0322534 0.673246 0.709842 0.207036 255 255 255 255 
-0.312306 -0.839895 0.0305301 0.73884 0.64402 0.198375 255 255 255 255 
-0.306237 -0.847462 0.0299307 0.810066 0.549294 0.205105 255 255 255 255 
-0.302042 -0.854879 0.0306051 0.858386 0.461108 0.22484 255 255 255 255 
-0.298445 -0.862896 0.0318787 0.900318 0.366576 0.234627 255 255 255 255 
-0.296198 -0.872261 0.0349504 0.936907 0.241911 0.252356 255 255 255 255 
-0.295523 -0.881326 0.0388463 0.952274 0.13022 0.276074 255 255 255 255 
-0.296198 -0.889717 0.0433415 0.951928 0.0819425 0.295159 255 255 255 255 
-0.298595 -0.899906 0.0500095 1 0 0 255 255 255 255 
-0.40723 -0.815995 0.0925642 -0.198745 0.980037 -0.00527289 255 255 255 255 
-0.398164 -0.814197 0.0850721 -0.0611677 0.994782 0.0816481 255 255 255 255 
-0.387376 -0.812699 0.0764563 0.00177579 0.993166 0.1167 255 255 255 255 
-0.378086 -0.812399 0.0696386 0.101897 0.982435 0.156326 255 255 255 255 
-0.369545 -0.812624 0.0637199 0.217687 0.956182 0.195775 255 255 255 255 
-0.362053 -0.813748 0.058925 0.320882 0.920988 0.220942 255 255 255 255 
-0.35531 -0.815396 0.0550291 0.39033 0.888176 0.242459 255 255 255 255 
-0.347743 -0.818093 0.0509835 0.474581 0.845121 0.246056 255 255 255 255 
-0.339352 -0.821989 0.0470126 0.531181 0.812679 0.239583 255 255 255 255 
-0.33186 -0.826484 0.0438659 0.5758 0.780559 0.243273 255 255 255 255 
-0.324368 -0.83098 0.0407943 0.624582 0.745073 0.234017 255 255 255 255 
-0.317925 -0.836449 0.0388463 0.690269 0.685918 0.230316 255 255 255 255 
-0.312006 -0.842293 0.0375726 0.753045 0.616203 0.230687 255 255 255 255 
-0.307136 -0.84911 0.0374978 0.817574 0.520627 0.246009 255 255 255 255 
-0.30309 -0.856677 0.0382469 0.86214 0.437727 0.255166 255 255 255 255 
-0.299869 -0.865068 0.0401199 0.900253 0.335484 0.27748 255 255 255 255 
-0.298296 -0.87316 0.042892 0.926392 0.23115 0.297266 255 255 255 255 
-0.297921 -0.880577 0.0461884 0.940005 0.145151 0.308743 255 255 255 255 
-0.298595 -0.888893 0.0506837 0.949918 0.0854601 0.300586 255 255 255 255 
-0.300243 -0.896385 0.0555535 1 0 0 255 255 255 255 
-0.302716 -0.902828 0.0603485 1 0 0 255 255 255 255 
-0.415246 -0.819067 0.106574 1 0 0 255 255 255 255 
-0.407829 -0.81682 0.100281 1 0 0 255 255 255 255 
-0.398614 -0.814872 0.0926392 0.0331766 0.989224 0.142603 255 255 255 255 
-0.38835 -0.813898 0.0846976 0.0650102 0.983448 0.169127 255 255 255 255 
-0.378985 -0.813523 0.0778049 0.168374 0.963823 0.206627 255 255 255 255 
-0.370744 -0.814048 0.0721858 0.253955 0.937205 0.239069 255 255 255 255 
-0.361828 -0.815771 0.0667167 0.368934 0.894959 0.250871 255 255 255 255 
-0.352313 -0.818768 0.0614723 0.445613 0.854206 0.267884 255 255 255 255 
-0.343697 -0.822439 0.0572018 0.517359 0.811631 0.271284 255 255 255 255 
-0.335681 -0.826634 0.0536056 0.571081 0.772798 0.276857 255 255 255 255 
-0.328264 -0.831204 0.0506088 0.610648 0.737978 0.287223 255 255 255 255 
-0.321671 -0.836449 0.0485111 0.670709 0.681736 0.292208 255 255 255 255 
-0.315527 -0.842143 0.0469377 0.731068 0.615095 0.295291 255 255 255 255 
-0.310508 -0.848886 0.0467129 0.79121 0.531346 0.302749 255 255 255 255 
-0.306237 -0.856228 0.0472374 0.841854 0.442173 0.309458 255 255 255 255 
-0.30309 -0.864694 0.0491104 0.881988 0.337872 0.328541 255 255 255 255 
-0.301367 -0.874583 0.0527066 0.912575 0.23443 0.335036 255 255 255 255 
-0.301292 -0.884098 0.0572767 0.926947 0.16835 0.335302 255 255 255 255 
-0.30309 -0.893613 0.0630455 1 0 0 255 255 255 255 
-0.306537 -0.902828 0.0699383 1 0 0 255 255 255 255 
-0.408503 -0.818243 0.110171 -0.0488741 0.989653 0.1349 255 255 255 255 
-0.396816 -0.81622 0.100805 0.0841426 0.983096 0.162609 255 255 255 255 
-0.387076 -0.815696 0.0934633 0.133114 0.974119 0.182685 255 255 255 255 
-0.376737 -0.816295 0.0863458 0.242641 0.94565 0.216499 255 255 255 255 
-0.365649 -0.818168 0.0793782 0.357148 0.898842 0.254023 255 255 255 255 
-0.356059 -0.82109 0.0740588 0.433254 0.859376 0.271596 255 255 255 255 
-0.346994 -0.824461 0.0693389 0.512357 0.812836 0.277107 255 255 255 255 
-0.337854 -0.829481 0.0652932 0.588329 0.75606 0.286779 255 255 255 255 
-0.328488 -0.836149 0.0619218 0.645979 0.698666 0.307533 255 255 255 255 
-0.320022 -0.843491 0.0595993 0.719001 0.614543 0.324616 255 255 255 255 
-0.31328 -0.852407 0.0591498 0.798434 0.498667 0.337394 255 255 255 255 
-0.309084 -0.861772 0.060723 0.853361 0.380167 0.35672 255 255 255 255 
-0.306762 -0.871062 0.06357 0.876582 0.31855 0.360737 255 255 255 255 
-0.306537 -0.882375 0.0688894 1 0 0 255 255 255 255 
-0.309159 -0.894587 0.0765312 1 0 0 255 255 255 255 
-0.313729 -0.904851 0.0847725 1 0 0 255 255 255 255 
-0.408653 -0.819742 0.121109 -0.0504666 0.989839 0.132936 255 255 255 255 
-0.397265 -0.817943 0.112044 0.041545 0.98897 0.142169 255 255 255 255 
-0.385803 -0.817794 0.103652 0.154097 0.975018 0.159983 255 255 255 255 
-0.373815 -0.818992 0.095636 0.273677 0.945173 0.178184 255 255 255 255 
-0.363476 -0.82139 0.0894175 0.389366 0.900277 0.194667 255 255 255 255 
-0.353062 -0.82551 0.0840983 0.48652 0.843679 0.226946 255 255 255 255 
-0.342499 -0.831204 0.0794531 0.581607 0.772062 0.256232 255 255 255 255 
-0.332984 -0.837797 0.0759319 0.653394 0.705414 0.274714 255 255 255 255 
-0.324742 -0.845364 0.0738341 0.729076 0.618262 0.293597 255 255 255 255 
-0.318075 -0.85443 0.0734596 0.818544 0.480588 0.314677 255 255 255 255 
-0.313954 -0.865743 0.0760817 0.884466 0.337939 0.32174 255 255 255 255 
-0.31253 -0.87788 0.0808766 0.925255 0.21494 0.312575 255 255 255 255 
-0.313804 -0.888743 0.0869452 1 0 0 255 255 255 255 
-0.317026 -0.899607 0.0945122 1 0 0 255 255 255 255 
-0.321596 -0.909871 0.102604 1 0 0 255 255 255 255 
-0.410601 -0.821465 0.133096 -0.115006 0.99218 0.0485002 255 255 255 255 
-0.398989 -0.819592 0.123806 -0.00647523 0.995033 0.0993338 255 255 255 255 
-0.387151 -0.819217 0.115115 0.132237 0.983799 0.121046 255 255 255 255 
-0.375389 -0.820566 0.107324 0.257504 0.955977 0.140713 255 255 255 255 
-0.365199 -0.823113 0.10133 0.3807 0.911351 0.156546 255 255 255 255 
-0.35486 -0.827308 0.0960106 0.490939 0.85421 0.171188 255 255 255 255 
-0.344372 -0.833152 0.0915153 0.586102 0.788224 0.187581 255 255 255 255 
-0.335231 -0.840045 0.0883687 0.672977 0.709009 0.210734 255 255 255 255 
-0.32729 -0.847912 0.0866455 0.754239 0.612159 0.237456 255 255 255 255 
-0.320922 -0.857202 0.0865706 0.854545 0.445064 0.267713 255 255 255 255 
-0.317775 -0.867616 0.0893427 0.918041 0.269203 0.291084 255 255 255 255 
-0.317101 -0.878479 0.0940627 0.945022 0.154263 0.288333 255 255 255 255 
-0.318075 -0.889043 0.0998315 0.961356 0.0507398 0.270592 255 255 255 255 
-0.320996 -0.899607 0.106949 1 0 0 255 255 255 255 
-0.325941 -0.912118 0.116389 1 0 0 255 255 255 255 
-0.411725 -0.822064 0.143435 -0.11494 0.991938 0.0533681 255 255 255 255 
-0.400337 -0.820341 0.134445 -0.0377197 0.997129 0.0656561 255 255 255 255 
-0.388575 -0.820041 0.125754 0.105306 0.990384 0.0897181 255 255 255 255 
-0.376962 -0.82154 0.118187 0.247674 0.962731 0.108658 255 255 255 255 
-0.366698 -0.824012 0.112044 0.372378 0.91873 0.131418 255 255 255 255 
-0.356284 -0.828208 0.106724 0.488846 0.85951 0.14924 255 255 255 255 
-0.345945 -0.834126 0.102379 0.592215 0.787235 0.171878 255 255 255 255 
-0.33688 -0.841094 0.0993071 0.680537 0.707303 0.19129 255 255 255 255 
-0.329163 -0.84926 0.0978087 0.781025 0.585244 0.217921 255 255 255 255 
-0.323469 -0.85915 0.098483 0.879337 0.401248 0.25645 255 255 255 255 
-0.320847 -0.870013 0.101779 0.935881 0.222887 0.272853 255 255 255 255 
-0.320472 -0.881176 0.106874 0.955824 0.101271 0.275944 255 255 255 255 
-0.321746 -0.89204 0.113018 0.958298 0.0471257 0.281857 255 255 255 255 
-0.324668 -0.902529 0.12006 1 0 0 255 255 255 255 
-0.328264 -0.911819 0.126953 1 0 0 255 255 255 255 
-0.414422 -0.823113 0.155273 -0.085548 0.99128 0.100224 255 255 255 255 
-0.402735 -0.821165 0.145982 -0.0176088 0.994644 0.101845 255 255 255 255 
-0.391047 -0.82094 0.137442 0.115982 0.985737 0.121942 255 255 255 255 
-0.378985 -0.822064 0.12935 0.263203 0.954881 0.137572 255 255 255 255 
-0.367222 -0.825211 0.122532 0.394323 0.905966 0.154059 255 255 255 255 
-0.355834 -0.830305 0.116913 0.524127 0.834947 0.167792 255 255 255 255 
-0.34587 -0.836599 0.112868 0.632976 0.749779 0.192802 255 255 255 255 
-0.336355 -0.84499 0.110171 0.72532 0.648547 0.230862 255 255 255 255 
-0.328788 -0.855179 0.109721 0.838143 0.484402 0.25074 255 255 255 255 
-0.324668 -0.866492 0.112193 0.926259 0.277858 0.254635 255 255 255 255 
-0.323694 -0.878929 0.117363 0.96285 0.108643 0.247217 255 255 255 255 
-0.325192 -0.89189 0.12463 0.975965 -0.016887 0.217271 255 255 255 255 
-0.328264 -0.904476 0.132722 0.97662 -0.1267 0.173665 255 255 255 255 
-0.33171 -0.913617 0.139464 1 0 0 255 255 255 255 
-0.420491 -0.82566 0.170856 -0.0481861 0.989158 0.138726 255 255 255 255 
-0.408129 -0.823338 0.160892 0.0385611 0.987658 0.151806 255 255 255 255 
-0.395767 -0.822514 0.151527 0.134652 0.974847 0.177599 255 255 255 255 
-0.38318 -0.823338 0.142911 0.258536 0.946804 0.191628 255 255 255 255 
-0.371268 -0.826409 0.135868 0.391099 0.899018 0.197001 255 255 255 255 
-0.359206 -0.83098 0.1295 0.517871 0.830391 0.205573 255 255 255 255 
-0.348118 -0.838097 0.12508 0.64697 0.730848 0.217465 255 255 255 255 
-0.338003 -0.847912 0.122607 0.752379 0.614465 0.237401 255 255 255 255 
-0.330062 -0.859599 0.122532 0.870717 0.426003 0.24571 255 255 255 255 
-0.32669 -0.873534 0.126728 0.952594 0.188764 0.238607 255 255 255 255 
-0.32684 -0.887095 0.133246 0.974944 0.0271669 0.220787 255 255 255 255 
-0.328788 -0.898558 0.139989 0.978843 -0.0534299 0.197514 255 255 255 255 
-0.332459 -0.909871 0.14793 1 0 0 255 255 255 255 
-0.420865 -0.827234 0.181944 -0.138608 0.989361 0.0441964 255 255 255 255 
-0.406406 -0.824911 0.170406 -0.004072 0.997194 0.0747533 255 255 255 255 
-0.392545 -0.824761 0.160292 0.152486 0.979817 0.129251 255 255 255 255 
-0.37906 -0.826634 0.151527 0.315472 0.93476 0.163407 255 255 255 255 
-0.366248 -0.83068 0.144334 0.452985 0.871756 0.186673 255 255 255 255 
-0.354336 -0.837198 0.139015 0.606775 0.768209 0.204154 255 255 255 255 
-0.343473 -0.846413 0.135643 0.725276 0.651686 0.221991 255 255 255 255 
-0.334782 -0.857352 0.134595 0.835062 0.497829 0.234174 255 255 255 255 
-0.329987 -0.870013 0.137217 0.937932 0.2599 0.229641 255 255 255 255 
-0.329088 -0.88245 0.142386 0.973078 0.0839542 0.214643 255 255 255 255 
-0.330511 -0.895336 0.149504 0.978198 0.00659046 0.207571 255 255 255 255 
-0.334033 -0.908297 0.158045 1 0 0 255 255 255 255 
-0.425211 -0.828282 0.194381 -0.142878 0.989071 0.0363808 255 255 255 255 
-0.412774 -0.825885 0.184342 -0.0825827 0.996007 0.0339084 255 255 255 255 
-0.400337 -0.825061 0.174977 0.0685639 0.994044 0.0847132 255 255 255 255 
-0.387975 -0.82611 0.166511 0.209445 0.971921 0.107248 255 255 255 255 
-0.375613 -0.828732 0.158944 0.358454 0.927104 0.109497 255 255 255 255 
-0.363701 -0.833527 0.152725 0.504056 0.85116 0.14647 255 255 255 255 
-0.352688 -0.840794 0.14838 0.649721 0.740283 0.172755 255 255 255 255 
-0.342723 -0.850684 0.145908 0.767242 0.616375 0.17726 255 255 255 255 
-0.334932 -0.862446 0.145908 0.888729 0.411633 0.201792 255 255 255 255 
-0.331785 -0.876606 0.150253 0.962994 0.166527 0.211923 255 255 255 255 
-0.332459 -0.890616 0.157295 0.981239 0.00369209 0.19276 255 255 255 255 
-0.335156 -0.902678 0.164862 0.984291 -0.110559 0.137648 255 255 255 255 
-0.338003 -0.911219 0.170781 1 0 0 255 255 255 255 
-0.422514 -0.828133 0.199326 -0.119292 0.991231 0.0568451 255 255 255 255 
-0.410826 -0.826185 0.189886 0.00529255 0.995548 0.094112 255 255 255 255 
-0.399138 -0.82596 0.181345 0.100951 0.988866 0.109328 255 255 255 255 
-0.387076 -0.827159 0.173328 0.21338 0.971027 0.107587 255 255 255 255 
-0.376438 -0.829406 0.16681 0.348309 0.929217 0.123434 255 255 255 255 
-0.365949 -0.833527 0.161266 0.494368 0.857949 0.139729 255 255 255 255 
-0.356134 -0.839895 0.157295 0.618497 0.771899 0.147081 255 255 255 255 
-0.347443 -0.847162 0.154523 0.719897 0.677803 0.149437 255 255 255 255 
-0.340176 -0.855778 0.1534 0.824472 0.544289 0.154906 255 255 255 255 
-0.335156 -0.866192 0.154673 0.931028 0.330947 0.15382 255 255 255 255 
-0.333134 -0.87758 0.158494 0.983357 0.110536 0.144191 255 255 255 255 
-0.333583 -0.889417 0.164263 0.988679 -0.0392237 0.144831 255 255 255 255 
-0.335756 -0.90103 0.171156 0.986723 -0.119029 0.110496 255 255 255 255 
-0.339876 -0.912643 0.179397 1 0 0 255 255 255 255 
-0.425885 -0.829481 0.208017 -0.218977 0.972574 -0.0784168 255 255 255 255 
-0.413673 -0.827234 0.198127 -0.085649 0.995549 0.0393354 255 255 255 255 
-0.403709 -0.826559 0.19056 0.0367008 0.997808 0.0550592 255 255 255 255 
-0.39292 -0.827009 0.183143 0.15039 0.986713 0.0614909 255 255 255 255 
-0.381607 -0.828732 0.175876 0.282123 0.955781 0.082999 255 255 255 255 
-0.370669 -0.832478 0.169807 0.443701 0.889216 0.111463 255 255 255 255 
-0.36003 -0.838172 0.165012 0.584534 0.801619 0.125408 255 255 255 255 
-0.350965 -0.845214 0.161791 0.688778 0.711288 0.140193 255 255 255 255 
-0.343398 -0.853381 0.160217 0.790149 0.590562 0.164015 255 255 255 255 
-0.337479 -0.862971 0.160442 0.890197 0.421184 0.173647 255 255 255 255 
-0.334257 -0.87316 0.16284 0.962518 0.211968 0.1692 255 255 255 255 
-0.334033 -0.884323 0.167784 0.984191 0.0512347 0.169536 255 255 255 255 
-0.335156 -0.894887 0.173403 0.985071 -0.0556795 0.162896 255 255 255 255 
-0.337928 -0.905151 0.179996 1 0 0 255 255 255 255 
-0.341525 -0.914291 0.186739 1 0 0 255 255 255 255 
-0.42626 -0.829032 0.213935 -0.16741 0.985887 0.000545103 255 255 255 255 
-0.414722 -0.827234 0.20472 -0.111798 0.993728 -0.00249077 255 255 255 255 
-0.404683 -0.826559 0.197153 0.0124758 0.999354 0.0336944 255 255 255 255 
-0.393969 -0.827009 0.189736 0.134077 0.989737 0.0494361 255 255 255 255 
-0.382806 -0.828882 0.182768 0.278527 0.9563 0.0889552 255 255 255 255 
-0.373216 -0.831879 0.177299 0.407462 0.907181 0.104869 255 255 255 255 
-0.363626 -0.836674 0.172729 0.545602 0.829869 0.11677 255 255 255 255 
-0.354336 -0.843416 0.169283 0.66745 0.728985 0.151959 255 255 255 255 
-0.346394 -0.851283 0.16726 0.766448 0.616689 0.179591 255 255 255 255 
-0.340101 -0.860498 0.16696 0.863966 0.460756 0.203145 255 255 255 255 
-0.33613 -0.871886 0.169283 0.937423 0.260023 0.231574 255 255 255 255 
-0.335381 -0.884323 0.174452 0.970925 0.0765794 0.226804 255 255 255 255 
-0.336805 -0.895111 0.180296 0.968037 0.00185211 0.2508 255 255 255 255 
-0.339801 -0.905525 0.187114 1 0 0 255 255 255 255 
-0.343847 -0.915115 0.194306 1 0 0 255 255 255 255 
-0.427983 -0.829631 0.222476 -0.147151 0.988318 0.0396669 255 255 255 255 
-0.415995 -0.827458 0.212811 -0.0282047 0.996003 0.0847494 255 255 255 255 
-0.404008 -0.827084 0.204046 0.0951041 0.988117 0.120745 255 255 255 255 
-0.391497 -0.827908 0.19558 0.228791 0.964291 0.133405 255 255 255 255 
-0.381008 -0.83023 0.189212 0.362169 0.920257 0.148192 255 255 255 255 
-0.370519 -0.834276 0.183667 0.494854 0.850463 0.178418 255 255 255 255 
-0.360405 -0.840345 0.179247 0.622924 0.75754 0.195191 255 255 255 255 
-0.351039 -0.848811 0.176475 0.73585 0.643064 0.212117 255 255 255 255 
-0.342648 -0.859899 0.175501 0.849428 0.480261 0.218681 255 255 255 255 
-0.338153 -0.872635 0.178048 0.942962 0.247311 0.222846 255 255 255 255 
-0.337629 -0.885222 0.183218 0.969586 0.0494372 0.239706 255 255 255 255 
-0.339277 -0.89616 0.189286 0.977024 0.000984132 0.213128 255 255 255 255 
-0.342573 -0.906874 0.196404 1 0 0 255 255 255 255 
-0.431729 -0.831654 0.234314 -0.135619 0.989278 0.0541857 255 255 255 255 
-0.419517 -0.829256 0.224424 0.0272006 0.993054 0.114471 255 255 255 255 
-0.407305 -0.828657 0.215359 0.103993 0.984928 0.138209 255 255 255 255 
-0.394643 -0.829331 0.206668 0.225417 0.961306 0.15836 255 255 255 255 
-0.382131 -0.831879 0.199026 0.38107 0.90758 0.176307 255 255 255 255 
-0.370369 -0.836674 0.192883 0.528326 0.82794 0.188112 255 255 255 255 
-0.359506 -0.843866 0.188312 0.662085 0.721385 0.203093 255 255 255 255 
-0.349766 -0.853755 0.18584 0.776172 0.591509 0.218345 255 255 255 255 
-0.342124 -0.865443 0.185615 0.892256 0.394097 0.220379 255 255 255 255 
-0.339427 -0.879753 0.190036 0.966899 0.1339 0.217203 255 255 255 255 
-0.340476 -0.893913 0.197003 0.979076 0.0188167 0.202622 255 255 255 255 
-0.344147 -0.906724 0.205245 1 0 0 255 255 255 255 
-0.433976 -0.832553 0.245102 -0.146456 0.988123 0.0465046 255 255 255 255 
-0.421989 -0.83038 0.235437 -0.0518683 0.996735 0.06188 255 255 255 255 
-0.409552 -0.829556 0.226222 0.0665159 0.993358 0.0938912 255 255 255 255 
-0.396891 -0.83023 0.217456 0.203511 0.971354 0.122697 255 255 255 255 
-0.384304 -0.832703 0.209665 0.356765 0.921943 0.150795 255 255 255 255 
-0.372542 -0.837498 0.203446 0.515776 0.840303 0.16693 255 255 255 255 
-0.361528 -0.84454 0.198726 0.660073 0.728196 0.184484 255 255 255 255 
-0.351864 -0.854505 0.196254 0.781067 0.591778 0.199332 255 255 255 255 
-0.344447 -0.866417 0.196254 0.893997 0.386107 0.227354 255 255 255 255 
-0.341749 -0.880652 0.200599 0.961958 0.136478 0.236664 255 255 255 255 
-0.343173 -0.895111 0.207867 0.966946 0.0298005 0.253235 255 255 255 255 
-0.347443 -0.908447 0.216707 1 0 0 255 255 255 255 
-0.435325 -0.833227 0.254917 -0.14952 0.987626 0.0473076 255 255 255 255 
-0.423113 -0.830905 0.245027 -0.0452483 0.995298 0.0856389 255 255 255 255 
-0.410901 -0.830305 0.236037 0.0787434 0.991046 0.107834 255 255 255 255 
-0.398464 -0.831129 0.227571 0.220534 0.966285 0.13288 255 255 255 255 
-0.386177 -0.833827 0.220079 0.361935 0.917405 0.165441 255 255 255 255 
-0.37419 -0.838397 0.213561 0.51635 0.838707 0.173069 255 255 255 255 
-0.363326 -0.845589 0.208991 0.662097 0.724839 0.190359 255 255 255 255 
-0.353737 -0.855553 0.206593 0.786695 0.584279 0.19932 255 255 255 255 
-0.346694 -0.867765 0.206893 0.906998 0.364991 0.210088 255 255 255 255 
-0.344447 -0.880577 0.210864 0.96835 0.112248 0.222933 255 255 255 255 
-0.34572 -0.892864 0.217007 0.976705 0.0253558 0.213084 255 255 255 255 
-0.349766 -0.90605 0.225548 0.978326 -0.170299 0.117802 255 255 255 255 
-0.436599 -0.834576 0.264357 -0.118781 0.992583 0.0258727 255 255 255 255 
-0.424387 -0.832253 0.254542 0.03434 0.993079 0.112316 255 255 255 255 
-0.412025 -0.831504 0.245402 0.0990766 0.986415 0.131035 255 255 255 255 
-0.399513 -0.832328 0.236936 0.232585 0.961999 0.143046 255 255 255 255 
-0.387376 -0.835175 0.229594 0.370004 0.914956 0.161097 255 255 255 255 
-0.375389 -0.839745 0.223076 0.513211 0.839991 0.176151 255 255 255 255 
-0.365799 -0.846113 0.21903 0.654937 0.734206 0.178885 255 255 255 255 
-0.356883 -0.854879 0.216557 0.766268 0.613588 0.190637 255 255 255 255 
-0.349766 -0.865143 0.215808 0.876529 0.439773 0.195695 255 255 255 255 
-0.34632 -0.876831 0.21843 0.965939 0.173251 0.192213 255 255 255 255 
-0.346919 -0.890317 0.224649 0.98364 -0.0130934 0.179671 255 255 255 255 
-0.349916 -0.902454 0.231991 0.978326 -0.170299 0.117803 255 255 255 255 
-0.353737 -0.911594 0.238584 1 0 0 255 255 255 255 
-0.434651 -0.834501 0.270425 -0.120145 0.992393 0.0268695 255 255 255 255 
-0.423413 -0.832927 0.26166 -0.0378176 0.998284 0.0447013 255 255 255 255 
-0.4115 -0.832478 0.253044 0.0803457 0.993212 0.0841101 255 255 255 255 
-0.399288 -0.833527 0.244877 0.224415 0.968065 0.111752 255 255 255 255 
-0.388949 -0.835999 0.238584 0.354417 0.926504 0.126412 255 255 255 255 
-0.37846 -0.83997 0.23289 0.484519 0.861251 0.153256 255 255 255 255 
-0.368271 -0.845964 0.22832 0.635449 0.753134 0.170273 255 255 255 255 
-0.36018 -0.853531 0.225848 0.749439 0.635617 0.18529 255 255 255 255 
-0.353512 -0.862371 0.224874 0.840548 0.499875 0.208815 255 255 255 255 
-0.348942 -0.873085 0.226222 0.934292 0.273081 0.229182 255 255 255 255 
-0.348267 -0.885297 0.231017 0.971137 0.0693495 0.228216 255 255 255 255 
-0.35059 -0.896685 0.23746 0.967346 -0.0404679 0.250208 255 255 255 255 
-0.354636 -0.907848 0.245102 1 0 0 255 255 255 255 
-0.436674 -0.835025 0.27994 -0.091681 0.99356 0.0665775 255 255 255 255 
-0.425286 -0.833377 0.271025 -0.0408805 0.996846 0.0680225 255 255 255 255 
-0.415321 -0.832778 0.263757 0.0686828 0.993472 0.0910873 255 255 255 255 
-0.404832 -0.833452 0.25664 0.192482 0.974924 0.111688 255 255 255 255 
-0.393969 -0.835475 0.249822 0.326827 0.935329 0.135438 255 255 255 255 
-0.383105 -0.839146 0.243754 0.462239 0.872687 0.157329 255 255 255 255 
-0.372542 -0.84484 0.238734 0.600874 0.776269 0.190675 255 255 255 255 
-0.364001 -0.852107 0.235812 0.725208 0.65774 0.203596 255 255 255 255 
-0.357183 -0.860723 0.234613 0.819958 0.529299 0.21797 255 255 255 255 
-0.351939 -0.870762 0.235138 0.914859 0.32675 0.237208 255 255 255 255 
-0.35059 -0.88245 0.239258 0.962796 0.112759 0.245581 255 255 255 255 
-0.352463 -0.893388 0.245102 0.9666 -0.0295019 0.254587 255 255 255 255 
-0.355535 -0.903577 0.251695 1 0 0 255 255 255 255 
-0.438547 -0.835999 0.290429 -0.0720708 0.993415 0.0890599 255 255 255 255 
-0.427159 -0.834351 0.281513 -0.00626899 0.994908 0.100596 255 255 255 255 
-0.415396 -0.834126 0.273122 0.121168 0.983198 0.136525 255 255 255 255 
-0.403109 -0.835175 0.264881 0.247968 0.956383 0.154412 255 255 255 255 
-0.392695 -0.837498 0.258513 0.376139 0.911124 0.168438 255 255 255 255 
-0.382206 -0.841543 0.252894 0.512957 0.838027 0.185972 255 255 255 255 
-0.372392 -0.847762 0.248549 0.641426 0.738117 0.209182 255 255 255 255 
-0.364151 -0.855254 0.245926 0.75145 0.619249 0.227714 255 255 255 255 
-0.357782 -0.864394 0.245252 0.851892 0.462921 0.244918 255 255 255 255 
-0.353812 -0.875482 0.247125 0.935391 0.227003 0.271133 255 255 255 255 
-0.354561 -0.889043 0.253418 0.961928 0.0474726 0.269149 255 255 255 255 
-0.357633 -0.901105 0.260611 1 0 0 255 255 255 255 
-0.361678 -0.91032 0.267354 1 0 0 255 255 255 255 
-0.441019 -0.837273 0.302491 -0.0342548 0.994731 0.0966283 255 255 255 255 
-0.429781 -0.8357 0.293726 0.00581463 0.992897 0.118831 255 255 255 255 
-0.417943 -0.835475 0.285259 0.12985 0.981775 0.138768 255 255 255 255 
-0.405656 -0.836524 0.277018 0.252031 0.953624 0.164565 255 255 255 255 
-0.395018 -0.838771 0.270425 0.388795 0.90174 0.188953 255 255 255 255 
-0.384754 -0.842967 0.264956 0.511707 0.832646 0.211795 255 255 255 255 
-0.374789 -0.84911 0.260536 0.647467 0.72967 0.219928 255 255 255 255 
-0.366773 -0.856827 0.258138 0.760187 0.604531 0.238029 255 255 255 255 
-0.360479 -0.865967 0.257464 0.863155 0.434405 0.2574 255 255 255 255 
-0.357108 -0.877655 0.260011 0.944199 0.192275 0.26743 255 255 255 255 
-0.357782 -0.889268 0.265331 0.963772 0.0513738 0.261735 255 255 255 255 
-0.360554 -0.899082 0.271399 1 0 0 255 255 255 255 
-0.364001 -0.907773 0.277468 1 0 0 255 255 255 255 
-0.451658 -0.840644 0.32212 -0.0753778 0.991136 0.109401 255 255 255 255 
-0.438696 -0.837872 0.311631 0.038064 0.990594 0.131434 255 255 255 255 
-0.428357 -0.837123 0.30384 0.0719786 0.985929 0.150874 255 255 255 255 
-0.416969 -0.837123 0.295748 0.180784 0.967544 0.176568 255 255 255 255 
-0.405207 -0.838547 0.288032 0.289937 0.937458 0.192637 255 255 255 255 
-0.393594 -0.841768 0.281139 0.442245 0.874534 0.199023 255 255 255 255 
-0.382656 -0.847312 0.275745 0.580755 0.782903 0.223127 255 255 255 255 
-0.372617 -0.855179 0.271999 0.72441 0.644415 0.244869 255 255 255 255 
-0.3643 -0.866192 0.270725 0.857148 0.447343 0.255308 255 255 255 255 
-0.360479 -0.879378 0.273572 0.950796 0.16849 0.259997 255 255 255 255 
-0.361828 -0.891515 0.279566 0.962867 0.0341554 0.267805 255 255 255 255 
-0.365349 -0.902079 0.286458 1 0 0 255 255 255 255 
-0.449785 -0.841618 0.332235 -0.0865184 0.994167 0.0643879 255 255 255 255 
-0.437872 -0.83967 0.322795 0.0103771 0.99355 0.112917 255 255 255 255 
-0.425585 -0.839146 0.313729 0.127854 0.980441 0.149629 255 255 255 255 
-0.412999 -0.840045 0.305113 0.253257 0.950349 0.180823 255 255 255 255 
-0.400487 -0.842592 0.297397 0.389842 0.894637 0.218282 255 255 255 255 
-0.38865 -0.847387 0.291028 0.551179 0.799872 0.237501 255 255 255 255 
-0.377936 -0.854804 0.286608 0.690179 0.679653 0.248445 255 255 255 255 
-0.36902 -0.865443 0.284735 0.829 0.4963 0.257771 255 255 255 255 
-0.364225 -0.877655 0.286458 0.940221 0.213888 0.265023 255 255 255 255 
-0.365349 -0.891515 0.293051 0.966228 0.0425517 0.254151 255 255 255 255 
-0.369919 -0.904851 0.301892 1 0 0 255 255 255 255 
-0.457277 -0.843192 0.349616 -0.144709 0.987949 -0.0549139 255 255 255 255 
-0.445439 -0.841394 0.340176 -0.0863148 0.996178 0.0133812 255 255 255 255 
-0.43495 -0.840494 0.332235 -0.00219726 0.99736 0.0725849 255 255 255 255 
-0.423637 -0.840719 0.324218 0.130996 0.987432 0.08842 255 255 255 255 
-0.411875 -0.842293 0.316501 0.272596 0.95346 0.128864 255 255 255 255 
-0.400112 -0.845514 0.309534 0.425629 0.887762 0.175268 255 255 255 255 
-0.388949 -0.850833 0.303915 0.58725 0.780789 0.213322 255 255 255 255 
-0.378985 -0.85885 0.300244 0.729963 0.635416 0.251794 255 255 255 255 
-0.370893 -0.870163 0.29927 0.864413 0.41516 0.283607 255 255 255 255 
-0.368271 -0.882525 0.302566 0.940596 0.168679 0.294665 255 255 255 255 
-0.370219 -0.893388 0.308485 0.954639 -0.0090177 0.29763 255 255 255 255 
-0.374265 -0.904402 0.315902 1 0 0 255 255 255 255 
-0.45458 -0.841693 0.358681 -0.11629 0.991104 -0.0647187 255 255 255 255 
-0.441693 -0.840869 0.348867 -0.0439497 0.998714 -0.0252749 255 255 255 255 
-0.427908 -0.841094 0.339052 0.0951205 0.994197 0.0502412 255 255 255 255 
-0.41607 -0.842592 0.331261 0.257517 0.961645 0.0944636 255 255 255 255 
-0.404383 -0.845964 0.324443 0.423479 0.894195 0.145192 255 255 255 255 
-0.393295 -0.851433 0.318824 0.591231 0.781388 0.199696 255 255 255 255 
-0.383405 -0.859599 0.315303 0.73552 0.632908 0.241741 255 255 255 255 
-0.375464 -0.871062 0.314478 0.871818 0.403302 0.277994 255 255 255 255 
-0.373141 -0.883724 0.31815 0.943492 0.148797 0.296113 255 255 255 255 
-0.375314 -0.894737 0.324293 0.959539 -0.0333289 0.279597 255 255 255 255 
-0.378385 -0.902978 0.329987 1 0 0 255 255 255 255 
-0.4584 -0.841543 0.37389 -0.0739859 0.99695 -0.0248275 255 255 255 255 
-0.445289 -0.840569 0.363926 -0.0114259 0.999912 -0.00669983 255 255 255 255 
-0.431954 -0.841244 0.354561 0.128048 0.990772 0.0444445 255 255 255 255 
-0.420266 -0.842967 0.346919 0.27078 0.957631 0.0980845 255 255 255 255 
-0.408653 -0.846413 0.340101 0.439599 0.885971 0.147677 255 255 255 255 
-0.396366 -0.852781 0.334108 0.619361 0.757835 0.205131 255 255 255 255 
-0.386102 -0.862446 0.330961 0.767275 0.58969 0.252101 255 255 255 255 
-0.37921 -0.874883 0.331261 0.904464 0.31578 0.286753 255 255 255 255 
-0.378835 -0.889268 0.337029 0.952792 0.0879525 0.290607 255 255 255 255 
-0.38348 -0.902454 0.34587 1 0 0 255 255 255 255 
-0.45885 -0.841019 0.387826 -0.0176137 0.999397 0.0299357 255 255 255 255 
-0.446338 -0.840644 0.378535 0.045808 0.998451 0.0315931 255 255 255 255 
-0.433677 -0.841768 0.369845 0.191233 0.978917 0.0717762 255 255 255 255 
-0.42079 -0.844465 0.361753 0.339634 0.932387 0.123706 255 255 255 255 
-0.408204 -0.84896 0.354711 0.51614 0.839498 0.169831 255 255 255 255 
-0.397265 -0.856452 0.350141 0.683934 0.699565 0.206983 255 255 255 255 
-0.38835 -0.867316 0.348417 0.827673 0.502522 0.249856 255 255 255 255 
-0.38363 -0.879753 0.35029 0.929215 0.23785 0.28282 255 255 255 255 
-0.385353 -0.894137 0.357558 0.960895 0.0920033 0.261182 255 255 255 255 
-0.389848 -0.905376 0.365424 1 0 0 255 255 255 255 
-0.46342 -0.842293 0.406181 -0.00749602 0.998114 0.0609309 255 255 255 255 
-0.450159 -0.841468 0.396292 0.0675741 0.995456 0.0670943 255 255 255 255 
-0.435475 -0.842892 0.386177 0.228503 0.969291 0.0908934 255 255 255 255 
-0.42139 -0.846488 0.377561 0.400555 0.907186 0.128723 255 255 255 255 
-0.408503 -0.852632 0.370968 0.591587 0.786897 0.175549 255 255 255 255 
-0.39779 -0.862146 0.367447 0.758893 0.611054 0.225152 255 255 255 255 
-0.390448 -0.874358 0.367447 0.899492 0.36593 0.238766 255 255 255 255 
-0.389324 -0.888069 0.372467 0.963524 0.150647 0.221195 255 255 255 255 
-0.392995 -0.900356 0.380184 1 0 0 255 255 255 255 
-0.462296 -0.842967 0.419592 -0.0573273 0.997485 -0.041684 255 255 255 255 
-0.44941 -0.842442 0.410077 0.0645893 0.997612 0.0244627 255 255 255 255 
-0.437048 -0.843941 0.401686 0.229169 0.971337 0.0631304 255 255 255 255 
-0.424836 -0.847237 0.394269 0.399154 0.911703 0.0973327 255 255 255 255 
-0.412175 -0.853606 0.387975 0.597436 0.788309 0.147101 255 255 255 255 
-0.401461 -0.86327 0.384454 0.777188 0.598867 0.19323 255 255 255 255 
-0.394343 -0.875632 0.384679 0.919331 0.317647 0.232229 255 255 255 255 
-0.393894 -0.889942 0.390448 0.959799 0.120167 0.253664 255 255 255 255 
-0.398239 -0.902753 0.398914 1 0 0 255 255 255 255 
-0.46859 -0.842742 0.436524 -0.126324 0.989569 -0.0692527 255 255 255 255 
-0.457127 -0.841618 0.427833 -0.046145 0.996747 -0.0660795 255 255 255 255 
-0.445814 -0.842293 0.419891 0.109147 0.993385 -0.0356752 255 255 255 255 
-0.434875 -0.84484 0.412999 0.275352 0.961317 0.00719277 255 255 255 255 
-0.423413 -0.848736 0.406406 0.444776 0.893409 0.0632045 255 255 255 255 
-0.412924 -0.854954 0.401536 0.632818 0.767198 0.104637 255 255 255 255 
-0.403933 -0.864169 0.399138 0.804831 0.572821 0.155313 255 255 255 255 
-0.398015 -0.875782 0.399888 0.933791 0.28131 0.221132 255 255 255 255 
-0.398314 -0.888818 0.405657 0.963102 0.0888596 0.254045 255 255 255 255 
-0.401611 -0.898932 0.41225 1 0 0 255 255 255 255 
-0.46814 -0.841693 0.447462 -0.0253028 0.999494 -0.0192494 255 255 255 255 
-0.457426 -0.841169 0.439596 0.0147356 0.99987 0.00647402 255 255 255 255 
-0.446488 -0.842143 0.432029 0.152012 0.987874 0.0315955 255 255 255 255 
-0.435325 -0.84454 0.424911 0.325608 0.944698 0.0390513 255 255 255 255 
-0.424686 -0.849035 0.419067 0.482347 0.872228 0.0809876 255 255 255 255 
-0.414422 -0.855553 0.414497 0.654493 0.746048 0.122685 255 255 255 255 
-0.40663 -0.86387 0.412474 0.81225 0.562547 0.154246 255 255 255 255 
-0.401461 -0.874284 0.413224 0.940276 0.269399 0.208099 255 255 255 255 
-0.401836 -0.887395 0.419067 0.970861 0.0896463 0.222243 255 255 255 255 
-0.404832 -0.897134 0.425361 0.965391 -0.14567 0.216336 255 255 255 255 
-0.464469 -0.841543 0.456902 0.0467601 0.998906 -7.76831e-005 255 255 255 255 
-0.452781 -0.842068 0.448661 0.131499 0.99064 0.0365997 255 255 255 255 
-0.440869 -0.844016 0.440794 0.295726 0.951657 0.0830395 255 255 255 255 
-0.429706 -0.848211 0.434351 0.482433 0.867773 0.119283 255 255 255 255 
-0.419142 -0.854505 0.429406 0.63532 0.756117 0.157021 255 255 255 255 
-0.410751 -0.862446 0.426859 0.77953 0.598348 0.185236 255 255 255 255 
-0.404982 -0.872411 0.427009 0.927285 0.31157 0.207526 255 255 255 255 
-0.404383 -0.884697 0.431729 0.977528 0.0201806 0.209839 255 255 255 255 
-0.407904 -0.896685 0.439371 0.965614 -0.146908 0.214496 255 255 255 255 
-0.466192 -0.841618 0.471137 0.0584343 0.997403 -0.0420948 255 255 255 255 
-0.454505 -0.842218 0.462971 0.134543 0.990907 0.0011742 255 255 255 255 
-0.443117 -0.844615 0.455703 0.287373 0.956762 0.0449905 255 255 255 255 
-0.432028 -0.848886 0.44926 0.481264 0.872968 0.0794466 255 255 255 255 
-0.421689 -0.855404 0.444615 0.658909 0.740605 0.131695 255 255 255 255 
-0.412774 -0.864844 0.442218 0.824262 0.533319 0.190165 255 255 255 255 
-0.407979 -0.877355 0.444016 0.953025 0.192089 0.234192 255 255 255 255 
-0.409103 -0.889268 0.449935 0.973359 0.00370577 0.229258 255 255 255 255 
-0.4118 -0.896984 0.455254 0.967642 -0.152664 0.200903 255 255 255 255 
-0.462446 -0.840719 0.481401 0.0689596 0.991368 -0.111504 255 255 255 255 
-0.449785 -0.842442 0.47301 0.191714 0.978441 -0.0768035 255 255 255 255 
-0.438172 -0.846413 0.466117 0.401097 0.915996 -0.00849834 255 255 255 255 
-0.427383 -0.852781 0.460948 0.626739 0.776335 0.0670969 255 255 255 255 
-0.418243 -0.861997 0.458176 0.8006 0.582896 0.13882 255 255 255 255 
-0.412025 -0.873459 0.458625 0.941097 0.282927 0.18517 255 255 255 255 
-0.411875 -0.886121 0.46387 0.98417 -0.0158239 0.176519 255 255 255 255 
-0.414722 -0.895786 0.470238 0.969552 -0.172283 0.174033 255 255 255 255 
-0.462896 -0.839146 0.493913 0.050465 0.989206 -0.137566 255 255 255 255 
-0.450534 -0.841094 0.485821 0.174962 0.977318 -0.119318 255 255 255 255 
-0.439146 -0.845289 0.479303 0.409943 0.908284 -0.0834724 255 255 255 255 
-0.428882 -0.852032 0.474583 0.637476 0.770146 -0.0223397 255 255 255 255 
-0.420041 -0.861547 0.472186 0.827697 0.559441 0.0440868 255 255 255 255 
-0.414497 -0.873609 0.47331 0.963126 0.249956 0.0995472 255 255 255 255 
-0.414347 -0.886271 0.478704 0.989596 -0.085783 0.115501 255 255 255 255 
-0.417269 -0.895936 0.485222 0.967343 -0.231762 0.10263 255 255 255 255 
-0.464319 -0.837498 0.50635 0.033406 0.992317 -0.119128 255 255 255 255 
-0.453456 -0.838771 0.499082 0.140628 0.981647 -0.128815 255 255 255 255 
-0.441543 -0.842667 0.492115 0.373646 0.921693 -0.104259 255 255 255 255 
-0.43098 -0.849185 0.487095 0.61257 0.78728 -0.0703494 255 255 255 255 
-0.423113 -0.857651 0.484847 0.795748 0.605403 -0.0164973 255 255 255 255 
-0.417194 -0.867691 0.484847 0.923322 0.382449 0.0347796 255 255 255 255 
-0.414722 -0.878404 0.48762 0.995357 0.0755721 0.0596146 255 255 255 255 
-0.415995 -0.888668 0.493164 0.980299 -0.183267 0.0736734 255 255 255 255 
-0.418543 -0.89616 0.498408 0.95725 -0.279494 0.0745295 255 255 255 255 
-0.46372 -0.836299 0.517138 0.052296 0.994341 -0.0924691 255 255 255 255 
-0.452781 -0.837498 0.509796 0.164533 0.981078 -0.102054 255 255 255 255 
-0.441094 -0.841693 0.503128 0.39773 0.91244 -0.0962529 255 255 255 255 
-0.43068 -0.848436 0.498333 0.633775 0.770602 -0.0670904 255 255 255 255 
-0.422963 -0.856977 0.49631 0.815586 0.577646 -0.0338314 255 255 255 255 
-0.417494 -0.867316 0.496685 0.93839 0.345545 0.00470389 255 255 255 255 
-0.415321 -0.878329 0.499906 0.998309 0.0425166 0.0396323 255 255 255 255 
-0.41682 -0.888668 0.5056 0.976179 -0.210749 0.0515674 255 255 255 255 
-0.419667 -0.89646 0.511219 0.949218 -0.311465 0.0444464 255 255 255 255 
-0.463345 -0.835325 0.528301 0.0588218 0.99459 -0.0856216 255 255 255 255 
-0.452482 -0.836674 0.520959 0.169771 0.981329 -0.0903922 255 255 255 255 
-0.440644 -0.840794 0.514216 0.411435 0.907358 -0.0861523 255 255 255 255 
-0.43038 -0.847612 0.509646 0.656338 0.75181 -0.0632653 255 255 255 255 
-0.423038 -0.856527 0.507998 0.830958 0.555809 -0.0241707 255 255 255 255 
-0.417644 -0.866941 0.508522 0.946032 0.324019 0.0058953 255 255 255 255 
-0.415696 -0.878105 0.512044 0.99935 0.0167105 0.0319457 255 255 255 255 
-0.417119 -0.888294 0.517663 0.975965 -0.213908 0.0416576 255 255 255 255 
-0.419816 -0.895936 0.523057 0.957401 -0.285798 0.0412651 255 255 255 255 
-0.463045 -0.834501 0.539165 0.0466223 0.993248 -0.106233 255 255 255 255 
-0.451882 -0.8357 0.531598 0.164754 0.981508 -0.0974618 255 255 255 255 
-0.441768 -0.839221 0.525829 0.389469 0.916006 -0.0961584 255 255 255 255 
-0.432553 -0.845065 0.521633 0.622927 0.77945 -0.0664764 255 255 255 255 
-0.424686 -0.85368 0.51961 0.813944 0.580296 -0.0274208 255 255 255 255 
-0.419067 -0.86387 0.51991 0.92355 0.383183 0.0150574 255 255 255 255 
-0.41622 -0.874358 0.522457 0.993603 0.109875 0.0260796 255 255 255 255 
-0.416595 -0.883724 0.526878 0.990692 -0.134471 0.0211237 255 255 255 255 
-0.419292 -0.893238 0.533171 0.963418 -0.26623 0.0307696 255 255 255 255 
-0.462371 -0.833302 0.54838 0.0429447 0.99323 -0.107935 255 255 255 255 
-0.451733 -0.834726 0.541337 0.156506 0.981869 -0.106958 255 255 255 255 
-0.441468 -0.838247 0.535494 0.379511 0.918544 -0.110675 255 255 255 255 
-0.432328 -0.844166 0.531373 0.622548 0.775147 -0.107613 255 255 255 255 
-0.424536 -0.852931 0.5295 0.824354 0.55963 -0.0851745 255 255 255 255 
-0.419367 -0.86342 0.530324 0.934725 0.353455 -0.0368617 255 255 255 255 
-0.416595 -0.873984 0.532871 0.994071 0.10639 -0.0224337 255 255 255 255 
-0.41682 -0.883199 0.537142 0.986289 -0.164585 -0.0120297 255 255 255 255 
